ply
format ascii 1.0
comment PCL generated
element vertex 1116
property float x
property float y
property float z
property uchar red
property uchar green
property uchar blue
element camera 0
property float view_px
property float view_py
property float view_pz
property float x_axisx
property float x_axisy
property float x_axisz
property float y_axisx
property float y_axisy
property float y_axisz
property float z_axisx
property float z_axisy
property float z_axisz
property float focal
property float scalex
property float scaley
property float centerx
property float centery
property int viewportx
property int viewporty
property float k1
property float k2
end_header
-0.063540377 -0.2242775 0.7814911 255 0 0
-0.022945426 -0.22058339 0.7681272 255 0 0
-0.0079009449 -0.21477167 0.74781007 0 50 255
0.0017620737 -0.21928301 0.76349592 255 0 0
0.0066481931 -0.21834917 0.760243 255 0 0
0.011376151 -0.21521418 0.74933243 255 0 0
0.016474839 -0.21887055 0.76207447 255 0 0
0.021582359 -0.22093883 0.76929373 255 0 0
0.026698366 -0.22230531 0.77407587 255 0 0
0.044232327 -0.21087779 0.73443699 0 50 255
0.059877783 -0.21616557 0.75303316 255 0 0
0.064729273 -0.21618502 0.75317276 255 0 0
0.06952367 -0.21602403 0.75268936 255 0 0
0.073964946 -0.21485786 0.74870867 255 0 0
0.078372903 -0.21374306 0.74491179 255 0 0
0.082183711 -0.21122169 0.73621643 255 0 0
0.087609895 -0.21290021 0.74216479 255 0 0
0.092761531 -0.21377221 0.74530816 255 0 0
0.0988876 -0.20654547 0.72032696 0 50 255
0.10397995 -0.20746556 0.72365081 255 0 0
0.11634073 -0.21306342 0.74342614 255 0 0
0.1285505 -0.20959982 0.73174196 255 0 0
0.14081873 -0.20690458 0.72276342 255 0 0
0.14497949 -0.20622176 0.7205286 255 0 0
0.15155837 -0.20891416 0.73009133 255 0 0
0.15282407 -0.20434055 0.71426344 255 0 0
0.15780474 -0.2048557 0.71622294 255 0 0
0.17087099 -0.20960894 0.73317528 255 0 0
0.17502372 -0.20895247 0.73104954 255 0 0
0.17770237 -0.206616 0.72304612 255 0 0
0.1793493 -0.20322907 0.71136421 255 0 0
0.18245697 -0.20162405 0.7059173 255 0 0
0.18619232 -0.20077328 0.70311129 255 0 0
0.19171925 -0.20184873 0.70705295 255 0 0
0.19796541 -0.20361412 0.71341544 255 0 0
0.20572017 -0.20681621 0.72481793 255 0 0
0.20932095 -0.2057928 0.72141486 255 0 0
0.21365084 -0.20551477 0.7206248 255 0 0
0.21643755 -0.20379521 0.71477962 255 0 0
0.22119787 -0.2039665 0.7155658 255 0 0
0.22588554 -0.20406498 0.71609801 255 0 0
0.23015976 -0.20379329 0.71533167 255 0 0
0.24079137 -0.20505448 0.72013682 255 0 0
0.24361226 -0.20356451 0.71509248 255 0 0
0.24664588 -0.20230375 0.71085113 255 0 0
0.24731806 -0.19918652 0.7000826 255 0 0
0.24782798 -0.19605151 0.68924588 255 0 0
0.24965473 -0.19404928 0.68238664 255 0 0
0.27540484 -0.2034113 0.71587318 255 0 0
0.27661103 -0.19774103 0.6962809 255 0 0
0.28155324 -0.19809297 0.69770116 255 0 0
0.28435266 -0.19694966 0.6938535 255 0 0
0.2881079 -0.19649309 0.69242293 255 0 0
0.29108068 -0.19552459 0.68918598 255 0 0
0.30102277 -0.1991965 0.70230711 255 0 0
0.30568746 -0.19364507 0.68324739 255 0 0
0.3286835 -0.19182549 0.67780614 255 0 0
0.35493743 -0.18972191 0.67142564 255 0 0
-0.12291168 -0.2275451 0.77720028 0 50 255
-0.098974369 -0.22988018 0.78449243 255 0 0
-0.079676434 -0.23238729 0.79258788 255 0 0
-0.073462486 -0.2288983 0.78058845 255 0 0
-0.068151742 -0.22791816 0.77715224 255 0 0
-0.06316188 -0.22794081 0.77714139 255 0 0
-0.057704572 -0.22613539 0.77090448 255 0 0
-0.051715512 -0.22171079 0.75574654 0 50 255
-0.046240423 -0.21880028 0.74575794 0 50 255
-0.041297857 -0.21802735 0.74306202 0 50 255
-0.03687292 -0.22014251 0.75021446 0 50 255
-0.031910557 -0.21920294 0.74696231 0 50 255
-0.027321555 -0.22094953 0.75286973 255 0 0
-0.022437094 -0.2205447 0.75145197 255 0 0
-0.012624537 -0.2180624 0.74293637 0 50 255
-0.0078605404 -0.21850856 0.74443656 0 50 255
0.001768099 -0.22472277 0.76558584 255 0 0
0.0066843219 -0.22438931 0.76444829 255 0 0
0.011531422 -0.22300088 0.75972283 255 0 0
0.016342195 -0.22194508 0.75613672 255 0 0
0.021176307 -0.22161731 0.75503713 255 0 0
0.039175529 -0.21378909 0.72849131 0 50 255
0.043720677 -0.21309765 0.72618067 0 50 255
0.048642095 -0.21419623 0.72997594 255 0 0
0.053489961 -0.21480557 0.73210979 255 0 0
0.064588562 -0.2205397 0.75178802 255 0 0
0.069799624 -0.22173266 0.75593096 255 0 0
0.073924631 -0.21954447 0.74855185 255 0 0
0.078327812 -0.21839914 0.7447328 255 0 0
0.082392059 -0.21649481 0.73832977 255 0 0
0.0872095 -0.21666899 0.73901933 255 0 0
0.091745429 -0.21616153 0.73738909 255 0 0
0.095679447 -0.21435516 0.73133147 255 0 0
0.098657399 -0.21067607 0.71888673 255 0 0
0.10381332 -0.21176864 0.72272748 255 0 0
0.10946058 -0.2137267 0.72952813 255 0 0
0.11471827 -0.21479429 0.73329538 255 0 0
0.11818213 -0.2125511 0.72576338 255 0 0
0.12208549 -0.21123837 0.72141045 255 0 0
0.12657778 -0.21100308 0.7207402 255 0 0
0.1309035 -0.21051621 0.71921396 255 0 0
0.13363534 -0.20758641 0.7093429 255 0 0
0.13859007 -0.20818858 0.71154308 255 0 0
0.14446938 -0.21009672 0.71821183 255 0 0
0.15043865 -0.21201336 0.72491556 255 0 0
0.15256983 -0.20856801 0.71328765 255 0 0
0.15542698 -0.20628653 0.70563895 255 0 0
0.17672697 -0.21571028 0.73837388 255 0 0
0.17743525 -0.21092518 0.72216237 255 0 0
0.17998677 -0.20851859 0.71409082 255 0 0
0.18269469 -0.20640779 0.70703083 255 0 0
0.18653409 -0.20564631 0.70459241 255 0 0
0.19191545 -0.20658042 0.70796531 255 0 0
0.19791223 -0.20811836 0.71341145 255 0 0
0.20258014 -0.20822078 0.71393973 255 0 0
0.20487083 -0.20592901 0.70625836 255 0 0
0.20965889 -0.20619196 0.70733839 255 0 0
0.21354187 -0.20557238 0.70539171 255 0 0
0.21792904 -0.20545353 0.70516348 255 0 0
0.22147934 -0.20456634 0.70229822 255 0 0
0.2431789 -0.20775475 0.71398103 255 0 0
0.24650478 -0.20671776 0.71060157 255 0 0
0.24499185 -0.20173365 0.69364852 255 0 0
0.24563777 -0.19867259 0.68330032 255 0 0
0.24781476 -0.19693488 0.67749953 255 0 0
0.27191666 -0.19874115 0.68459499 255 0 0
0.27528605 -0.19802392 0.68229848 255 0 0
0.27813816 -0.19696258 0.67881387 255 0 0
0.28137389 -0.19620107 0.67636031 255 0 0
0.28711447 -0.19718266 0.67991489 255 0 0
0.29053208 -0.19656332 0.67794853 255 0 0
0.29763654 -0.19841979 0.68452132 255 0 0
0.29772213 -0.19561097 0.67499745 255 0 0
0.30061564 -0.19470061 0.67202014 255 0 0
0.31872118 -0.1953053 0.67475247 255 0 0
0.36293036 -0.19598857 0.67861497 255 0 0
0.3629069 -0.19142856 0.66309679 255 0 0
0.40966979 -0.1858916 0.64552796 255 0 0
-0.12427332 -0.23510914 0.78608614 255 0 0
-0.097741209 -0.23199311 0.77500421 255 0 0
-0.091930799 -0.22990824 0.76792216 255 0 0
-0.08847785 -0.23381683 0.7808634 255 0 0
-0.083443418 -0.23376456 0.78057992 255 0 0
-0.078894295 -0.23515192 0.78510851 255 0 0
-0.073346272 -0.233548 0.77965546 255 0 0
-0.06800317 -0.23240906 0.77576137 255 0 0
-0.062777348 -0.23152232 0.77271551 255 0 0
-0.057133418 -0.22880863 0.76357907 255 0 0
-0.051774386 -0.22683294 0.75691277 255 0 0
-0.04639836 -0.2243652 0.74861151 0 50 255
-0.041328527 -0.22297806 0.74392259 0 50 255
-0.036556724 -0.22304623 0.74409521 0 50 255
-0.031835578 -0.22349054 0.74552834 255 0 0
-0.027045354 -0.22352147 0.74558818 255 0 0
-0.022122888 -0.22223736 0.74126762 0 50 255
-0.017280431 -0.22127257 0.73801833 0 50 255
-0.012520544 -0.22103502 0.7372008 0 50 255
-0.0077147391 -0.21920387 0.73107439 0 50 255
-0.0030389889 -0.22112189 0.73745769 255 0 0
0.0066700093 -0.22874837 0.76288331 255 0 0
0.011523009 -0.22768185 0.75933087 255 0 0
0.016234918 -0.22529161 0.75136977 255 0 0
0.020918312 -0.22369243 0.7460528 255 0 0
0.025617424 -0.22282629 0.74318624 255 0 0
0.03034018 -0.22240525 0.7418102 255 0 0
0.034754399 -0.22014393 0.73430133 255 0 0
0.039293926 -0.21912192 0.73093158 255 0 0
0.044222087 -0.22025351 0.73475152 255 0 0
0.049002863 -0.22050312 0.73563486 255 0 0
0.05327826 -0.21863443 0.72945666 255 0 0
0.058461986 -0.22049357 0.73572153 255 0 0
0.063756652 -0.2224611 0.74235469 255 0 0
0.068785183 -0.22329032 0.74519551 255 0 0
0.07293646 -0.2213489 0.73879462 255 0 0
0.077748641 -0.22152758 0.73947477 255 0 0
0.082125105 -0.2205154 0.73618454 255 0 0
0.086274691 -0.21903713 0.73134238 255 0 0
0.089954481 -0.21658018 0.72323561 255 0 0
0.094769023 -0.21696226 0.72461301 255 0 0
0.099027283 -0.21609433 0.72182006 255 0 0
0.10381007 -0.21639715 0.72294223 255 0 0
0.10871239 -0.21691222 0.724778 255 0 0
0.11317459 -0.21654259 0.72366238 255 0 0
0.11710808 -0.2152302 0.71939909 255 0 0
0.12130681 -0.21448608 0.71703815 255 0 0
0.12594005 -0.21453626 0.71733612 255 0 0
0.1301479 -0.21388355 0.71528721 255 0 0
0.1335949 -0.21206726 0.7093491 255 0 0
0.13795166 -0.211767 0.70848393 255 0 0
0.14314899 -0.21273483 0.71186507 255 0 0
0.14858752 -0.21398994 0.71621215 255 0 0
0.15152137 -0.21167053 0.70859802 255 0 0
0.15489452 -0.21008177 0.70342976 255 0 0
0.15988502 -0.21071418 0.70570099 255 0 0
0.17359476 -0.21652764 0.72549474 255 0 0
0.17737372 -0.21547002 0.72211576 255 0 0
0.17878626 -0.21166435 0.7095257 255 0 0
0.18394904 -0.21237692 0.71208113 255 0 0
0.18925047 -0.21321101 0.71504712 255 0 0
0.19520809 -0.2147273 0.72030473 255 0 0
0.19798139 -0.21275146 0.71384925 255 0 0
0.20177609 -0.21193741 0.71129131 255 0 0
0.20422609 -0.20977786 0.70421642 255 0 0
0.20908441 -0.21013166 0.70557874 255 0 0
0.21191156 -0.20847212 0.70018059 255 0 0
0.21644638 -0.20852625 0.70053786 255 0 0
0.2186394 -0.20636761 0.69346046 255 0 0
0.22189753 -0.20527999 0.68997979 255 0 0
0.22396921 -0.20315835 0.68302166 255 0 0
0.24385229 -0.20897426 0.70311135 255 0 0
0.24411085 -0.20541288 0.69130504 255 0 0
0.24865647 -0.20552118 0.69184589 255 0 0
0.25175914 -0.20445374 0.68842798 255 0 0
0.25548068 -0.2039167 0.6867944 255 0 0
0.25962737 -0.20373124 0.68634415 255 0 0
0.26169541 -0.2019477 0.68050808 255 0 0
0.26731631 -0.20291917 0.68395448 255 0 0
0.27148455 -0.20277426 0.68363822 255 0 0
0.27289584 -0.20060712 0.67650139 255 0 0
0.27579179 -0.1995817 0.67321151 255 0 0
0.27930591 -0.19902804 0.67151058 255 0 0
0.28363395 -0.19906217 0.67179167 255 0 0
0.28850245 -0.19946882 0.67332923 255 0 0
0.2920922 -0.19899221 0.67188424 255 0 0
0.29613233 -0.19883166 0.67150462 255 0 0
0.3028118 -0.20042244 0.67703968 255 0 0
0.34393644 -0.20178567 0.68305224 255 0 0
0.37240234 -0.1836936 0.62363976 0 50 255
-0.13890895 -0.23929602 0.78400648 255 0 0
-0.13173889 -0.23546451 0.77130228 255 0 0
-0.12726332 -0.23633778 0.77401537 255 0 0
-0.12415034 -0.23991492 0.78558511 255 0 0
-0.096224375 -0.23329286 0.76325965 255 0 0
-0.092430539 -0.23611762 0.77238548 255 0 0
-0.088798456 -0.23969916 0.78398889 255 0 0
-0.083392493 -0.23863484 0.78040093 255 0 0
-0.078392588 -0.23867053 0.78041601 255 0 0
-0.073173605 -0.2379984 0.77812225 255 0 0
-0.068081342 -0.23766997 0.77695799 255 0 0
-0.062558003 -0.23566552 0.77032089 255 0 0
-0.057300147 -0.23440255 0.76611441 255 0 0
-0.052205253 -0.23363134 0.76352143 255 0 0
-0.047059052 -0.23244666 0.75958335 255 0 0
-0.041872025 -0.23076266 0.75402004 255 0 0
-0.037073016 -0.23105611 0.75492418 255 0 0
-0.032192994 -0.23085694 0.75422454 255 0 0
-0.027178394 -0.22945109 0.74958867 255 0 0
-0.022099899 -0.22678363 0.74083793 255 0 0
-0.017372945 -0.22724931 0.74232823 255 0 0
-0.012639799 -0.22795637 0.74461275 255 0 0
-0.007810649 -0.22673927 0.74061799 255 0 0
-0.0030395526 -0.22604029 0.73832148 255 0 0
0.0017251319 -0.22837457 0.74593848 255 0 0
0.0066043567 -0.23128504 0.75544327 255 0 0
0.020571591 -0.22467959 0.73389798 255 0 0
0.025268082 -0.22448197 0.73327386 255 0 0
0.029956976 -0.22428915 0.73267132 255 0 0
0.034715261 -0.22459722 0.73371035 255 0 0
0.039574161 -0.22540417 0.73638529 255 0 0
0.044350185 -0.22561663 0.73712367 255 0 0
0.049078166 -0.22556689 0.73701102 255 0 0
0.053622376 -0.22475523 0.73441422 255 0 0
0.057985436 -0.22337672 0.7299701 255 0 0
0.062747739 -0.22362711 0.73085392 255 0 0
0.071767032 -0.22246267 0.72719467 255 0 0
0.076552488 -0.22278945 0.72834355 255 0 0
0.081320845 -0.2230313 0.72922027 255 0 0
0.085057668 -0.22057155 0.72126764 255 0 0
0.089514144 -0.22013536 0.71993583 255 0 0
0.09361048 -0.21889962 0.71599293 255 0 0
0.097724751 -0.21781927 0.71256167 255 0 0
0.10216482 -0.21752898 0.71171874 255 0 0
0.10729884 -0.21867749 0.71558809 255 0 0
0.11117984 -0.21728268 0.71113867 255 0 0
0.11543293 -0.21669605 0.70933735 255 0 0
0.1200547 -0.21681952 0.70986432 255 0 0
0.1254452 -0.21827126 0.71474457 255 0 0
0.12894177 -0.21644118 0.70888174 255 0 0
0.13274163 -0.21522731 0.70503861 255 0 0
0.13671 -0.21435736 0.70232427 255 0 0
0.14107999 -0.21415235 0.70179117 255 0 0
0.14481415 -0.21302439 0.69823575 255 0 0
0.14928307 -0.21301232 0.69833994 255 0 0
0.15346251 -0.21259969 0.69713354 255 0 0
0.15955397 -0.21478401 0.70444679 255 0 0
0.16646552 -0.21792148 0.71489239 255 0 0
0.17196804 -0.21909545 0.71890247 255 0 0
0.17829572 -0.21560752 0.70777696 255 0 0
0.18273182 -0.21549329 0.70756465 255 0 0
0.18797055 -0.21630798 0.71040487 255 0 0
0.19791499 -0.2123379 0.69786274 255 0 0
0.20179607 -0.21172504 0.69601649 255 0 0
0.20580815 -0.21127291 0.69469899 255 0 0
0.2094326 -0.21045019 0.69216299 255 0 0
0.2138128 -0.21040499 0.69218451 255 0 0
0.21685646 -0.20907292 0.68797225 255 0 0
0.21940376 -0.20732456 0.68238837 255 0 0
0.22319455 -0.20679627 0.68081903 255 0 0
0.22947641 -0.20855194 0.68677038 255 0 0
0.23513573 -0.20968641 0.69067901 255 0 0
0.24166535 -0.21154071 0.69696116 255 0 0
0.24701393 -0.21231264 0.69967973 255 0 0
0.25096834 -0.21188001 0.69842881 255 0 0
0.2538003 -0.21053115 0.69415635 255 0 0
0.25742275 -0.20987281 0.69215882 255 0 0
0.25770998 -0.20656335 0.68141425 255 0 0
0.26105079 -0.20577042 0.67896771 255 0 0
0.26507863 -0.20553593 0.67836231 255 0 0
0.26831937 -0.20470829 0.67579794 255 0 0
0.27001137 -0.20274375 0.6694774 255 0 0
0.27528128 -0.20348495 0.6720897 255 0 0
0.27882561 -0.2029473 0.67047745 255 0 0
0.28504193 -0.20434123 0.67524648 255 0 0
0.28782067 -0.20326588 0.67185503 255 0 0
0.29179466 -0.20305365 0.67131436 255 0 0
0.29467624 -0.20209819 0.6683144 255 0 0
0.29973981 -0.20264496 0.67028069 255 0 0
0.30216807 -0.20141964 0.66638374 255 0 0
0.30650806 -0.20148475 0.66675395 255 0 0
0.30607483 -0.19845313 0.65687269 255 0 0
0.31319538 -0.20033476 0.66325194 255 0 0
0.32811248 -0.20437074 0.67691755 255 0 0
0.33078629 -0.20336848 0.67374659 255 0 0
0.32996094 -0.20026787 0.66361934 255 0 0
0.33418187 -0.20026967 0.66376817 255 0 0
-0.13795887 -0.24265029 0.77891064 255 0 0
-0.13192065 -0.24074115 0.77263385 255 0 0
-0.12689486 -0.24060251 0.77204436 255 0 0
-0.12226785 -0.24123928 0.77394682 255 0 0
-0.1180428 -0.24275635 0.77867645 255 0 0
-0.11208037 -0.24067643 0.77187282 255 0 0
-0.10585255 -0.23780799 0.76254731 255 0 0
-0.099914581 -0.23534404 0.7545262 255 0 0
-0.0960977 -0.2378795 0.76253808 255 0 0
-0.08798331 -0.24248779 0.77708614 255 0 0
-0.072584152 -0.2410415 0.77215505 255 0 0
-0.067356981 -0.24008225 0.76899415 255 0 0
-0.062335715 -0.23976307 0.76788926 255 0 0
-0.056619015 -0.23648421 0.75731224 255 0 0
-0.05139523 -0.23484121 0.7519806 255 0 0
-0.04623669 -0.23318635 0.74661738 255 0 0
-0.041372672 -0.23280558 0.74533957 255 0 0
-0.036778614 -0.234043 0.74924785 255 0 0
-0.032192513 -0.23571144 0.75454092 255 0 0
-0.027052362 -0.2331955 0.74644518 255 0 0
-0.022086218 -0.23141848 0.74072105 255 0 0
-0.017306693 -0.23115778 0.73985642 255 0 0
-0.012677253 -0.23346393 0.74721277 255 0 0
-0.0078776777 -0.23353963 0.74743593 255 0 0
-0.0030390481 -0.23088692 0.73893291 255 0 0
0.0017196996 -0.23217793 0.74305713 255 0 0
0.0064832503 -0.23174076 0.74165636 255 0 0
0.015669135 -0.22670808 0.72556359 255 0 0
0.020475393 -0.22830075 0.73067594 255 0 0
0.025331786 -0.22975326 0.73534572 255 0 0
0.030047718 -0.22967485 0.73512149 255 0 0
0.034777958 -0.2297118 0.73527193 255 0 0
0.039491452 -0.22964206 0.73508668 255 0 0
0.044090435 -0.22899209 0.73304927 255 0 0
0.048591748 -0.22800893 0.72995025 255 0 0
0.053239215 -0.22782387 0.72941148 255 0 0
0.057584424 -0.22647959 0.72516632 255 0 0
0.061452284 -0.22359937 0.71600711 255 0 0
0.065645874 -0.22222266 0.71166617 255 0 0
0.070693187 -0.22372669 0.71655595 255 0 0
0.075844921 -0.22535673 0.72185534 255 0 0
0.079884663 -0.22368498 0.71658313 255 0 0
0.083624236 -0.22140031 0.70935076 255 0 0
0.088643141 -0.22256352 0.71316934 255 0 0
0.092712022 -0.22134402 0.70935726 255 0 0
0.096943021 -0.22060736 0.7070961 255 0 0
0.10091358 -0.21937014 0.70323408 255 0 0
0.10680504 -0.22223552 0.71252847 255 0 0
0.11014219 -0.21976869 0.70473105 255 0 0
0.11415537 -0.21879183 0.7017138 255 0 0
0.11917045 -0.2197362 0.70486212 255 0 0
0.12502798 -0.22210787 0.71259427 255 0 0
0.1287683 -0.22068344 0.70815146 255 0 0
0.13239215 -0.21916306 0.70340258 255 0 0
0.1364878 -0.21849787 0.7014004 255 0 0
0.13944444 -0.21610965 0.69386834 255 0 0
0.14321785 -0.21509553 0.69074917 255 0 0
0.14867361 -0.21659291 0.69569832 255 0 0
0.15372413 -0.21742968 0.69852996 255 0 0
0.15908206 -0.21864136 0.70257008 255 0 0
0.16365014 -0.21873043 0.70300633 255 0 0
0.17523974 -0.2163583 0.69584101 255 0 0
0.17992048 -0.21662986 0.69687164 255 0 0
0.18428275 -0.21651395 0.69665784 255 0 0
0.18724473 -0.21479698 0.69129264 255 0 0
0.19050923 -0.21349803 0.68727237 255 0 0
0.19328199 -0.21171884 0.68170524 255 0 0
0.19994691 -0.21418734 0.68981689 255 0 0
0.20427078 -0.21409543 0.6896854 255 0 0
0.20937626 -0.21480905 0.69215035 255 0 0
0.21201423 -0.2130138 0.68653154 255 0 0
0.21473616 -0.21137385 0.68141133 255 0 0
0.21686773 -0.20922928 0.67466217 255 0 0
0.22165379 -0.20967925 0.67627847 255 0 0
0.22896948 -0.21245903 0.68541199 255 0 0
0.23480813 -0.21378952 0.6898737 255 0 0
0.24320714 -0.21735911 0.70156473 255 0 0
0.24812865 -0.21774769 0.70299202 255 0 0
0.25180376 -0.21704791 0.70090526 255 0 0
0.25157788 -0.21306857 0.68822402 255 0 0
0.2528002 -0.21043102 0.67987156 255 0 0
0.25724465 -0.21051915 0.68032312 255 0 0
0.26069954 -0.20980786 0.67819035 255 0 0
0.26552501 -0.21020459 0.6796385 255 0 0
0.26677689 -0.20780478 0.67204273 255 0 0
0.26851037 -0.20584993 0.66588187 255 0 0
0.27215731 -0.20539989 0.66458619 255 0 0
0.2773912 -0.20614278 0.66714972 255 0 0
0.28006193 -0.20498705 0.6635676 255 0 0
0.28230479 -0.203557 0.65909463 255 0 0
0.28973967 -0.20585763 0.66670066 255 0 0
0.29377306 -0.20570984 0.66637778 255 0 0
0.30073962 -0.20759082 0.67262691 255 0 0
0.30470017 -0.20737302 0.67207575 255 0 0
0.30971619 -0.20786951 0.6738385 255 0 0
0.30701166 -0.20324133 0.65898448 255 0 0
0.30810207 -0.2012161 0.65256399 255 0 0
0.32148847 -0.20445086 0.66334701 255 0 0
0.33347619 -0.20150141 0.65433484 255 0 0
0.40097967 -0.20199148 0.65786529 255 0 0
-0.13547689 -0.24318613 0.76515996 255 0 0
-0.13083084 -0.24366331 0.7665168 255 0 0
-0.12672475 -0.24522242 0.77127969 255 0 0
-0.12106052 -0.24377047 0.76657605 255 0 0
-0.11548749 -0.24238686 0.76209289 255 0 0
-0.11201841 -0.24549165 0.77172518 255 0 0
-0.10670865 -0.24466296 0.76899523 255 0 0
-0.10061666 -0.24187335 0.76010835 255 0 0
-0.094347969 -0.2383531 0.74893278 255 0 0
-0.065906204 -0.23974603 0.7527281 255 0 0
-0.061097283 -0.23983683 0.75293368 255 0 0
-0.055924714 -0.23839295 0.74832708 255 0 0
-0.050860416 -0.2371825 0.74445921 255 0 0
-0.045574713 -0.23458117 0.73623204 255 0 0
-0.040833339 -0.23450364 0.73593193 255 0 0
-0.027154008 -0.23889908 0.74958497 255 0 0
-0.022066528 -0.23598413 0.74040359 255 0 0
-0.017385472 -0.23700817 0.74358654 255 0 0
-0.012649261 -0.23777176 0.74595779 255 0 0
-0.0078381114 -0.23719974 0.7441445 255 0 0
-0.0030276366 -0.23489356 0.73689657 255 0 0
0.001719304 -0.23663288 0.74234563 255 0 0
0.0064755403 -0.23615284 0.74083799 255 0 0
0.011058006 -0.23242608 0.72915059 255 0 0
0.015561428 -0.22974962 0.72076339 255 0 0
0.020122465 -0.22895569 0.71828735 255 0 0
0.04368953 -0.23156354 0.72662437 255 0 0
0.048502959 -0.2322609 0.72885996 255 0 0
0.05332635 -0.23287852 0.73085082 255 0 0
0.057241194 -0.22974928 0.72108728 255 0 0
0.061138857 -0.22702427 0.71259612 255 0 0
0.065427959 -0.22603083 0.70954394 255 0 0
0.070075408 -0.22632374 0.71053445 255 0 0
0.075023584 -0.22749241 0.71427959 255 0 0
0.078907676 -0.2254854 0.70805818 255 0 0
0.083485179 -0.22557023 0.70840943 255 0 0
0.08824861 -0.22612247 0.71023321 255 0 0
0.092791446 -0.22608264 0.71020192 255 0 0
0.096463233 -0.22402337 0.70383036 255 0 0
0.10058656 -0.22314972 0.70118666 255 0 0
0.10670294 -0.22658287 0.71208113 255 0 0
0.11149184 -0.22703062 0.71359926 255 0 0
0.11525619 -0.22543882 0.70870996 255 0 0
0.12001773 -0.22584404 0.71010178 255 0 0
0.12409031 -0.22497025 0.70747572 255 0 0
0.12727113 -0.22259814 0.70013946 255 0 0
0.13065964 -0.22073835 0.69441539 255 0 0
0.13419016 -0.21923281 0.68980724 255 0 0
0.13852243 -0.21909118 0.68949258 255 0 0
0.14281572 -0.21889833 0.68901956 255 0 0
0.14902794 -0.22156979 0.69756675 255 0 0
0.15542948 -0.22435872 0.7064898 255 0 0
0.1594827 -0.22369577 0.70454729 255 0 0
0.16427818 -0.21808036 0.68715101 255 0 0
0.16824174 -0.21751644 0.68552208 255 0 0
0.17235465 -0.21716915 0.68457735 255 0 0
0.17751676 -0.21812811 0.68775243 255 0 0
0.18297747 -0.21939845 0.69191283 255 0 0
0.18665805 -0.21852456 0.68931305 255 0 0
0.18894908 -0.21610156 0.68182576 255 0 0
0.19125049 -0.2137993 0.67471755 255 0 0
0.19686198 -0.21521711 0.67934978 255 0 0
0.20118316 -0.21519333 0.67943388 255 0 0
0.20645034 -0.21616086 0.68264961 255 0 0
0.20989946 -0.21522397 0.67985201 255 0 0
0.21521646 -0.21620135 0.68310201 255 0 0
0.21742775 -0.2140817 0.67656678 255 0 0
0.22211717 -0.21443705 0.67785227 255 0 0
0.22991131 -0.21771862 0.68839121 255 0 0
0.23504865 -0.2184082 0.69073814 255 0 0
0.24055777 -0.21941128 0.69407797 255 0 0
0.24362276 -0.21818902 0.69037825 255 0 0
0.24726415 -0.21751699 0.68841821 255 0 0
0.24892044 -0.21515246 0.68109918 255 0 0
0.25202435 -0.21409868 0.67792678 255 0 0
0.2561498 -0.21393344 0.67756665 255 0 0
0.26081732 -0.21421877 0.67863333 255 0 0
0.26273847 -0.2122757 0.67263901 255 0 0
0.26465917 -0.21039452 0.66683722 255 0 0
0.26632866 -0.20837615 0.66059715 255 0 0
0.27288488 -0.21018431 0.66648698 255 0 0
0.27624762 -0.20951484 0.66452068 255 0 0
0.27817616 -0.20779416 0.65921748 255 0 0
0.28192258 -0.20746221 0.65831751 255 0 0
0.28794423 -0.20878969 0.66268307 255 0 0
0.29193887 -0.20863004 0.66232842 255 0 0
0.29409537 -0.20717996 0.6578747 255 0 0
0.3089757 -0.21163806 0.67233336 255 0 0
0.30359074 -0.20234835 0.64310575 255 0 0
0.30784792 -0.20245902 0.64359748 255 0 0
0.32003656 -0.20771445 0.66044623 255 0 0
0.3323158 -0.20493154 0.65214336 255 0 0
0.34510711 -0.20033319 0.63813967 255 0 0
0.41207764 -0.19558287 0.62491781 255 0 0
-0.16611452 -0.24992536 0.77202213 255 0 0
-0.14918019 -0.24642859 0.76074833 255 0 0
-0.14510871 -0.24779187 0.76480478 255 0 0
-0.14130646 -0.249726 0.77062464 255 0 0
-0.13618921 -0.24939191 0.76944751 255 0 0
-0.13106915 -0.24902722 0.76818013 255 0 0
-0.12542942 -0.24760795 0.76366413 255 0 0
-0.11323809 -0.24245632 0.74751735 255 0 0
-0.10594181 -0.24780121 0.76374847 255 0 0
-0.093296222 -0.24044754 0.74086028 255 0 0
-0.088426769 -0.24012524 0.73976219 255 0 0
-0.083292037 -0.23900503 0.73621106 255 0 0
-0.077948578 -0.23711511 0.73029476 0 50 255
-0.073001243 -0.23626535 0.72758782 0 50 255
-0.069721423 -0.24106489 0.74228156 255 0 0
-0.064868577 -0.24073051 0.74117011 255 0 0
-0.060190111 -0.24104147 0.74205059 255 0 0
-0.054980904 -0.23909763 0.73599517 255 0 0
-0.050463583 -0.24008 0.73895264 255 0 0
-0.045500405 -0.23892482 0.73533612 255 0 0
-0.040490735 -0.23722982 0.73006403 255 0 0
-0.0355151 -0.23531647 0.72412598 255 0 0
-0.026458379 -0.2374835 0.73070979 255 0 0
-0.021800073 -0.23784992 0.73180288 255 0 0
-0.017193193 -0.2391333 0.73572236 255 0 0
-0.012446749 -0.23871297 0.73440552 255 0 0
0.0063977353 -0.23794316 0.73199719 255 0 0
0.011117604 -0.23834369 0.73323303 255 0 0
0.01561789 -0.2351983 0.72356576 255 0 0
0.028613105 -0.22767007 0.70046318 0 50 255
0.033302356 -0.22898167 0.70452809 255 0 0
0.037973635 -0.22987029 0.70729691 255 0 0
0.042998664 -0.23248126 0.71537107 255 0 0
0.048085652 -0.23489046 0.72283036 255 0 0
0.052761428 -0.2350432 0.72335142 255 0 0
0.057250381 -0.23440596 0.72144628 255 0 0
0.061282285 -0.23213249 0.71450949 255 0 0
0.065613657 -0.23123074 0.71179867 255 0 0
0.069874004 -0.230212 0.70873213 255 0 0
0.074345998 -0.22997221 0.70806789 255 0 0
0.078701407 -0.22941989 0.70644563 255 0 0
0.082829997 -0.22830224 0.70308656 255 0 0
0.087634988 -0.22906779 0.70553124 255 0 0
0.091975369 -0.22860304 0.70419097 255 0 0
0.095967732 -0.22735702 0.70044768 255 0 0
0.099977195 -0.2262609 0.69716918 255 0 0
0.10550942 -0.22855698 0.70434755 255 0 0
0.11112048 -0.23082802 0.71145469 255 0 0
0.11538038 -0.2302236 0.70970374 255 0 0
0.11907379 -0.22857729 0.70474344 255 0 0
0.12240051 -0.22637297 0.69806445 255 0 0
0.12604153 -0.22488466 0.69359481 255 0 0
0.12933318 -0.2228954 0.68758154 255 0 0
0.13394138 -0.22323118 0.68874258 255 0 0
0.13850577 -0.22347455 0.68962204 255 0 0
0.14338738 -0.22419873 0.69198853 255 0 0
0.14976487 -0.22714798 0.70122778 255 0 0
0.15515175 -0.22846656 0.70543814 255 0 0
0.16145653 -0.21864998 0.67554337 255 0 0
0.16703491 -0.22030437 0.68079883 255 0 0
0.17137218 -0.22027904 0.68086672 255 0 0
0.17570297 -0.22024672 0.68091464 255 0 0
0.18149887 -0.22200778 0.68651021 255 0 0
0.18647499 -0.22270642 0.68882346 255 0 0
0.18984544 -0.22149917 0.68524325 255 0 0
0.1931866 -0.22031282 0.68172741 255 0 0
0.19664982 -0.21931475 0.67879391 255 0 0
0.19839849 -0.21648866 0.67020082 255 0 0
0.20310266 -0.21693863 0.67174935 255 0 0
0.20909274 -0.21871491 0.67740709 255 0 0
0.21560872 -0.22095792 0.68451422 255 0 0
0.21875821 -0.21973015 0.68087053 255 0 0
0.22187665 -0.21851946 0.6772784 255 0 0
0.22696267 -0.21925564 0.6797207 255 0 0
0.23057321 -0.21856536 0.67774105 255 0 0
0.23759173 -0.2170742 0.67343646 255 0 0
0.2428782 -0.21796298 0.67635405 255 0 0
0.24670063 -0.21752964 0.67516941 255 0 0
0.2513949 -0.21786654 0.67637521 255 0 0
0.25419468 -0.21657783 0.67253327 255 0 0
0.25659239 -0.21499479 0.66777503 255 0 0
0.25815704 -0.21277665 0.6610409 255 0 0
0.26238233 -0.2127873 0.66122895 255 0 0
0.26586476 -0.21220453 0.65957201 255 0 0
0.2717399 -0.21351983 0.66381443 255 0 0
0.27482191 -0.21263364 0.66121221 255 0 0
0.27814403 -0.21195696 0.65925956 255 0 0
0.2844668 -0.21355295 0.66437536 255 0 0
0.29139069 -0.21554668 0.67073023 255 0 0
0.28912881 -0.21078594 0.65606374 255 0 0
0.30286476 -0.21163341 0.65913999 255 0 0
0.30423108 -0.20968617 0.65321755 255 0 0
0.30475962 -0.20722166 0.64567941 255 0 0
0.31106347 -0.20869721 0.65041602 255 0 0
0.32121167 -0.2126794 0.66296685 255 0 0
0.3368406 -0.20675522 0.64528525 255 0 0
0.34583652 -0.20480424 0.63956267 255 0 0
-0.1577653 -0.24947086 0.75577468 255 0 0
-0.15394121 -0.25111943 0.76061457 255 0 0
-0.14911184 -0.25118202 0.76065266 255 0 0
-0.14542314 -0.25323498 0.76672006 255 0 0
-0.14186618 -0.25566855 0.77394044 255 0 0
-0.1371488 -0.25611112 0.7751357 255 0 0
-0.11812165 -0.24744123 0.74849814 255 0 0
-0.11216314 -0.24489991 0.74068701 255 0 0
-0.10890031 -0.24827978 0.75078785 255 0 0
-0.097914524 -0.24486761 0.74024206 255 0 0
-0.092044167 -0.24190858 0.73119068 255 0 0
-0.08830063 -0.24452151 0.73898548 255 0 0
-0.083553977 -0.24449524 0.73880756 255 0 0
-0.078063674 -0.24215879 0.73165429 255 0 0
-0.073084682 -0.24121092 0.72870219 255 0 0
-0.069014363 -0.24333735 0.73504186 255 0 0
-0.064503647 -0.24410881 0.73729229 255 0 0
-0.059815269 -0.2442767 0.7377243 255 0 0
-0.05473917 -0.24275391 0.73305577 255 0 0
-0.050426397 -0.24464801 0.73871028 255 0 0
-0.045632709 -0.24435991 0.73778021 255 0 0
-0.040459033 -0.24173462 0.72979957 255 0 0
-0.035276853 -0.23836455 0.71957666 255 0 0
-0.030509464 -0.23720406 0.71603 255 0 0
-0.02627564 -0.24051608 0.72598898 255 0 0
-0.021689044 -0.24133089 0.72841495 255 0 0
-0.017006615 -0.24123445 0.72809541 255 0 0
-0.0028867284 -0.23327732 0.70402759 0 50 255
0.011078572 -0.24215335 0.73080963 255 0 0
0.023746571 -0.22860287 0.68995488 0 50 255
0.028358124 -0.23008059 0.6944384 0 50 255
0.033166479 -0.23253615 0.70187855 255 0 0
0.03810636 -0.23521577 0.71000075 255 0 0
0.042970471 -0.23690471 0.71513832 255 0 0
0.047534194 -0.23677099 0.71477908 255 0 0
0.051998269 -0.23620774 0.71312803 255 0 0
0.056452207 -0.23569298 0.7116279 255 0 0
0.061193306 -0.23636411 0.71371323 255 0 0
0.065670982 -0.23599476 0.71266156 255 0 0
0.069809332 -0.23453316 0.70831573 255 0 0
0.073995523 -0.23340085 0.70496821 255 0 0
0.078074805 -0.23208086 0.70105749 255 0 0
0.082481787 -0.23182544 0.70036632 255 0 0
0.086494885 -0.23054624 0.69658589 255 0 0
0.090887614 -0.23035458 0.69609523 255 0 0
0.094900019 -0.22926174 0.6928848 255 0 0
0.099658638 -0.22998852 0.69517756 255 0 0
0.10471228 -0.23130442 0.69925576 255 0 0
0.10989729 -0.23279034 0.70385283 255 0 0
0.11469089 -0.2333623 0.7056914 255 0 0
0.12399029 -0.22558945 0.68252301 255 0 0
0.12919417 -0.22704887 0.68705803 255 0 0
0.13389724 -0.22756076 0.68872982 255 0 0
0.13824016 -0.22744714 0.68851167 255 0 0
0.14262995 -0.22741507 0.68854326 255 0 0
0.14865932 -0.22992048 0.69626164 255 0 0
0.15421011 -0.23156112 0.70136625 255 0 0
0.15642092 -0.22823533 0.69142973 255 0 0
0.15738934 -0.2233294 0.67670369 255 0 0
0.16098791 -0.22231814 0.67377728 255 0 0
0.16672015 -0.22422908 0.67970991 255 0 0
0.17147262 -0.22475842 0.68145788 255 0 0
0.17527634 -0.22404853 0.67945033 255 0 0
0.17887707 -0.2231196 0.67677909 255 0 0
0.18258609 -0.22236626 0.67464095 255 0 0
0.18796295 -0.2236318 0.67862988 255 0 0
0.19326612 -0.22475433 0.68218786 255 0 0
0.19653752 -0.22351646 0.67858255 255 0 0
0.19699098 -0.21919627 0.66561669 255 0 0
0.20150305 -0.21947917 0.66662687 255 0 0
0.20774916 -0.22159979 0.67322153 255 0 0
0.21304448 -0.22264063 0.67653877 255 0 0
0.21542662 -0.22065601 0.67066252 255 0 0
0.22048502 -0.22143634 0.67318982 255 0 0
0.22315754 -0.21983631 0.66848052 255 0 0
0.22667363 -0.21911159 0.66643143 255 0 0
0.2340948 -0.21810262 0.66367149 255 0 0
0.23758341 -0.21742168 0.66175336 255 0 0
0.2455073 -0.22075231 0.67204702 255 0 0
0.24899545 -0.22004855 0.67006016 255 0 0
0.25236419 -0.21926457 0.66782784 255 0 0
0.25330278 -0.21643008 0.65934724 255 0 0
0.25465739 -0.21403755 0.6522091 255 0 0
0.26096451 -0.21581742 0.65778387 255 0 0
0.26502779 -0.21571459 0.65762109 255 0 0
0.27245772 -0.21831237 0.66569245 255 0 0
0.27475506 -0.21678087 0.66117251 255 0 0
0.28065813 -0.21809739 0.66533798 255 0 0
0.28594869 -0.21890578 0.66795391 255 0 0
0.29211739 -0.22035272 0.67251885 255 0 0
0.28337234 -0.20767221 0.63409722 255 0 0
0.28608286 -0.2067167 0.63131714 0 50 255
0.29708308 -0.21169452 0.6466592 255 0 0
0.30194581 -0.21222267 0.6484111 255 0 0
0.30374348 -0.21061115 0.64362377 255 0 0
0.3083739 -0.21098046 0.64488769 255 0 0
0.31703943 -0.21406446 0.65445012 255 0 0
0.32101986 -0.21394607 0.65422249 255 0 0
0.32462257 -0.21358207 0.65324193 255 0 0
0.32585713 -0.21168876 0.64758098 255 0 0
0.3405641 -0.20810978 0.63724661 255 0 0
0.40432388 -0.19774611 0.60748571 255 0 0
0.42316729 -0.19404274 0.59657419 255 0 0
-0.25891376 -0.26374197 0.78744555 255 0 0
-0.23367234 -0.25802732 0.76964933 255 0 0
-0.22581002 -0.26027775 0.77599645 255 0 0
-0.16067898 -0.25129941 0.74723941 255 0 0
-0.14791186 -0.25398791 0.75478238 255 0 0
-0.1453936 -0.25808883 0.76682234 255 0 0
-0.1417692 -0.2604439 0.77367473 255 0 0
-0.1225168 -0.25141561 0.74645591 255 0 0
-0.11713872 -0.25013673 0.7425335 255 0 0
-0.11214708 -0.24960953 0.74084699 255 0 0
-0.10733709 -0.24945778 0.74027902 255 0 0
-0.10087366 -0.24527152 0.7277444 255 0 0
-0.097311176 -0.24807476 0.73595291 255 0 0
-0.093461886 -0.25039494 0.74273038 255 0 0
-0.089578956 -0.25286904 0.74996662 255 0 0
-0.084744073 -0.25278395 0.74961609 255 0 0
-0.079869673 -0.25256354 0.74886882 255 0 0
-0.074444719 -0.25046247 0.74255085 255 0 0
-0.069509834 -0.24983567 0.74060911 255 0 0
-0.064413726 -0.24849479 0.73655605 255 0 0
-0.059491146 -0.24766406 0.73402047 255 0 0
-0.054585077 -0.24676514 0.73128802 255 0 0
-0.050133817 -0.24794647 0.73472524 255 0 0
-0.045515183 -0.24845915 0.73618555 255 0 0
-0.040329464 -0.24563657 0.7277689 255 0 0
-0.03520466 -0.24249445 0.71841192 255 0 0
-0.03041167 -0.2410356 0.71404743 255 0 0
-0.026189299 -0.24438402 0.72392899 255 0 0
-0.021508351 -0.24397458 0.72268325 255 0 0
-0.016804153 -0.24300413 0.7197811 255 0 0
-0.012077454 -0.24084964 0.71337724 255 0 0
-0.0074019027 -0.23770846 0.70405632 255 0 0
-0.0028687553 -0.23646508 0.70036173 255 0 0
0.001638383 -0.23830874 0.70581543 255 0 0
0.0062240274 -0.24047634 0.71223348 255 0 0
0.0194935 -0.23513252 0.6964308 255 0 0
0.023953259 -0.23503825 0.69616967 255 0 0
0.028510677 -0.23578079 0.69839203 255 0 0
0.033328213 -0.23818006 0.70552707 255 0 0
0.038152177 -0.24004549 0.71108615 255 0 0
0.042550519 -0.23912005 0.70838302 255 0 0
0.046872519 -0.23798533 0.70506424 255 0 0
0.050941274 -0.23587728 0.69886607 255 0 0
0.055844132 -0.23765975 0.70419955 255 0 0
0.060367089 -0.23767927 0.70431447 255 0 0
0.06503731 -0.23823522 0.70602351 255 0 0
0.069758855 -0.23889419 0.70804286 255 0 0
0.073850602 -0.23744729 0.703825 255 0 0
0.077843577 -0.2358675 0.69921672 255 0 0
0.081052385 -0.23221293 0.68846035 255 0 0
0.085334748 -0.23185246 0.687473 255 0 0
0.0897898 -0.2319732 0.68791664 255 0 0
0.094420232 -0.23251425 0.68961072 255 0 0
0.09875565 -0.23231265 0.68910623 255 0 0
0.10339534 -0.23281308 0.69068801 255 0 0
0.10811071 -0.23343563 0.69263637 255 0 0
0.11255758 -0.2334519 0.69278949 255 0 0
0.11866997 -0.22813325 0.677221 255 0 0
0.12269521 -0.22755209 0.67560798 255 0 0
0.12926075 -0.23156106 0.68762797 255 0 0
0.13433294 -0.23271853 0.69118589 255 0 0
0.13850956 -0.23229989 0.6900661 255 0 0
0.14197631 -0.23075318 0.68559694 255 0 0
0.14665987 -0.23121734 0.6871044 255 0 0
0.15160014 -0.23204719 0.68970191 255 0 0
0.15448835 -0.22977774 0.68308902 255 0 0
0.15858388 -0.22937921 0.68203896 255 0 0
0.16185418 -0.22784016 0.67759848 255 0 0
0.16648169 -0.22824189 0.67893142 255 0 0
0.1702482 -0.22747253 0.67678249 255 0 0
0.17461455 -0.22752273 0.67707342 255 0 0
0.17784318 -0.22612372 0.67305237 255 0 0
0.18007538 -0.22355352 0.66554445 255 0 0
0.18402025 -0.22317891 0.6645726 255 0 0
0.1898002 -0.2249964 0.67013055 255 0 0
0.19366153 -0.22450928 0.6688264 255 0 0
0.19626601 -0.22261733 0.66333693 255 0 0
0.20007107 -0.22213817 0.66205657 255 0 0
0.20527174 -0.22319616 0.66535866 255 0 0
0.20973405 -0.22342449 0.66618919 255 0 0
0.21364844 -0.22307152 0.66528696 255 0 0
0.21998785 -0.22521473 0.67183113 255 0 0
0.22173844 -0.22266778 0.66438437 255 0 0
0.22406138 -0.22078018 0.65890235 255 0 0
0.22372712 -0.21639186 0.64595312 255 0 0
0.2292203 -0.2176965 0.64999598 255 0 0
0.23431574 -0.2185836 0.65279377 255 0 0
0.2392246 -0.21926855 0.65498883 255 0 0
0.24321243 -0.21910021 0.65463519 255 0 0
0.24904062 -0.22056727 0.6591686 255 0 0
0.25276393 -0.22015224 0.65807772 255 0 0
0.25599301 -0.21932715 0.65575987 255 0 0
0.26086733 -0.21991538 0.65766698 255 0 0
0.26371732 -0.21880527 0.65449435 255 0 0
0.26728928 -0.2183193 0.65318686 255 0 0
0.27063721 -0.21766782 0.6513828 255 0 0
0.27420646 -0.21721125 0.65016043 255 0 0
0.29200718 -0.2212951 0.66281891 255 0 0
0.2887772 -0.2127059 0.63736606 255 0 0
0.29513353 -0.21437959 0.64251733 255 0 0
0.3006196 -0.21538399 0.6456632 255 0 0
0.30430394 -0.21508767 0.64490908 255 0 0
0.30728471 -0.21430847 0.64270508 255 0 0
0.30996549 -0.21334308 0.6399402 255 0 0
0.31219095 -0.21209331 0.63631958 255 0 0
0.31689829 -0.21253985 0.63778627 255 0 0
0.32024601 -0.21207468 0.63651562 255 0 0
0.33398515 -0.20804463 0.62501091 255 0 0
-0.17454919 -0.26256558 0.76673663 255 0 0
-0.16538985 -0.255972 0.74732822 255 0 0
-0.1453784 -0.25438219 0.74210119 255 0 0
-0.12067682 -0.25234699 0.73550427 255 0 0
-0.11677409 -0.25409806 0.74048525 255 0 0
-0.11155092 -0.25300229 0.73717338 255 0 0
-0.10670734 -0.25270849 0.73620272 255 0 0
-0.10010152 -0.24802108 0.72243834 255 0 0
-0.097075731 -0.25217932 0.7344439 255 0 0
-0.092906505 -0.25363928 0.73859268 255 0 0
-0.088874549 -0.25565067 0.74434984 255 0 0
-0.08367829 -0.25435084 0.74047035 255 0 0
-0.079174116 -0.25512484 0.74263263 255 0 0
-0.074716441 -0.25615713 0.74555045 255 0 0
-0.069110736 -0.25312552 0.73664552 255 0 0
-0.063772172 -0.25069934 0.72950888 255 0 0
-0.058940519 -0.25003958 0.72751778 255 0 0
-0.054456413 -0.2508674 0.72985959 255 0 0
-0.04964231 -0.25018764 0.72782004 255 0 0
-0.045047987 -0.25058934 0.72893143 255 0 0
-0.040047228 -0.24856137 0.72298032 255 0 0
-0.035235923 -0.2473322 0.71935827 255 0 0
-0.030600183 -0.24715073 0.7187885 255 0 0
-0.026268339 -0.24979477 0.72644067 255 0 0
-0.021505341 -0.24859504 0.72291958 255 0 0
-0.016609596 -0.24477978 0.71179777 255 0 0
-0.011984945 -0.24358186 0.70829272 255 0 0
-0.0073567522 -0.24080612 0.70020461 255 0 0
-0.0028857971 -0.24254514 0.70524961 255 0 0
0.0016478028 -0.24394923 0.70932531 255 0 0
0.006207855 -0.24433134 0.71043438 255 0 0
0.010585804 -0.24025595 0.6985876 255 0 0
0.014916856 -0.2378564 0.69161832 255 0 0
0.019354019 -0.2378605 0.69164294 255 0 0
0.023845594 -0.23840652 0.69324821 255 0 0
0.028513646 -0.24026753 0.69868219 255 0 0
0.033371732 -0.24300627 0.70667398 255 0 0
0.038011789 -0.24369176 0.70869988 255 0 0
0.042316884 -0.24231231 0.70472544 255 0 0
0.046346173 -0.23977189 0.6973784 255 0 0
0.050341751 -0.23751925 0.69087225 255 0 0
0.054972522 -0.23838519 0.69344139 255 0 0
0.059803154 -0.23992299 0.69797003 255 0 0
0.06399449 -0.23886013 0.69493741 255 0 0
0.068956174 -0.24062347 0.70013189 255 0 0
0.073076494 -0.23941439 0.69668221 255 0 0
0.076883137 -0.23737584 0.69082206 255 0 0
0.080480196 -0.23494722 0.68382961 255 0 0
0.084532224 -0.23402883 0.68123549 255 0 0
0.089121737 -0.2346153 0.68302578 255 0 0
0.093330659 -0.23419157 0.68187892 255 0 0
0.09809614 -0.23513955 0.68472999 255 0 0
0.10280088 -0.2358667 0.68694234 255 0 0
0.10799843 -0.23761818 0.69214255 255 0 0
0.11233284 -0.23740701 0.69163013 255 0 0
0.11488082 -0.2335794 0.68058354 255 0 0
0.11784803 -0.23085263 0.67274487 255 0 0
0.12186183 -0.23029584 0.67123133 255 0 0
0.13410026 -0.23672485 0.69020313 255 0 0
0.13836341 -0.23645948 0.68955022 255 0 0
0.14148922 -0.23432663 0.68345314 255 0 0
0.14516316 -0.23320204 0.68029761 255 0 0
0.15086272 -0.23530208 0.68655205 255 0 0
0.15466766 -0.23441157 0.68408388 255 0 0
0.15867107 -0.23386236 0.68261319 255 0 0
0.16149966 -0.23165725 0.67630959 255 0 0
0.1649368 -0.23041701 0.67282295 255 0 0
0.16858798 -0.22953103 0.67037147 255 0 0
0.17361176 -0.23051126 0.67337227 255 0 0
0.1790067 -0.23192474 0.67764175 255 0 0
0.18105854 -0.22904214 0.66935951 255 0 0
0.18498288 -0.22860646 0.66822767 255 0 0
0.18830137 -0.22745842 0.66501385 255 0 0
0.19194686 -0.22674716 0.663077 255 0 0
0.19458199 -0.22489855 0.65781373 255 0 0
0.1981965 -0.22423598 0.65601891 255 0 0
0.20221782 -0.22405139 0.65562278 255 0 0
0.20755191 -0.22529912 0.65941936 255 0 0
0.21273156 -0.22633272 0.66259128 255 0 0
0.21980183 -0.2292982 0.67142206 255 0 0
0.22253454 -0.22771168 0.66692519 255 0 0
0.22443849 -0.22535242 0.66016275 255 0 0
0.22381112 -0.22058499 0.6463412 255 0 0
0.22938386 -0.22199 0.65060389 255 0 0
0.23413102 -0.22256024 0.65242124 255 0 0
0.23810303 -0.22238639 0.65205759 255 0 0
0.24021025 -0.22050652 0.64669031 255 0 0
0.24534091 -0.22141856 0.64951003 255 0 0
0.25240865 -0.22401941 0.65728575 255 0 0
0.258136 -0.22536497 0.66138077 255 0 0
0.261287 -0.2244541 0.65885335 255 0 0
0.26158002 -0.22115552 0.64931405 255 0 0
0.26428407 -0.21996613 0.64596385 255 0 0
0.26676059 -0.21862659 0.64217031 255 0 0
0.27012935 -0.21804747 0.64060843 255 0 0
0.27103212 -0.21552458 0.63333303 255 0 0
0.28778306 -0.22223827 0.65334105 255 0 0
0.29173124 -0.22208136 0.65301776 255 0 0
0.29063293 -0.21814097 0.64156574 255 0 0
0.29337567 -0.2171526 0.63879156 255 0 0
0.29988992 -0.21894461 0.6441958 255 0 0
0.30383575 -0.2188383 0.64401436 255 0 0
0.30610082 -0.21754026 0.6403237 255 0 0
0.30706781 -0.21536566 0.63404953 255 0 0
0.31021327 -0.21475545 0.63237792 255 0 0
0.3172313 -0.21680732 0.63854468 255 0 0
0.3229588 -0.21793644 0.64199412 255 0 0
0.32280496 -0.21511801 0.63381243 255 0 0
0.3215211 -0.21162504 0.62363827 255 0 0
0.32619256 -0.21208905 0.62512171 255 0 0
0.32827181 -0.21087666 0.62166202 255 0 0
0.32871482 -0.20865428 0.6152215 255 0 0
-0.20667873 -0.26468766 0.76014912 255 0 0
-0.15724041 -0.25526953 0.73171765 255 0 0
-0.14453667 -0.25762671 0.73804986 255 0 0
-0.14059703 -0.2590616 0.74202377 255 0 0
-0.12065873 -0.25701576 0.73565245 255 0 0
-0.11655284 -0.25834772 0.73934478 255 0 0
-0.11164289 -0.25793451 0.73804587 255 0 0
-0.10564828 -0.25486809 0.72916025 255 0 0
-0.10088732 -0.25463158 0.72837609 255 0 0
-0.097093441 -0.25693122 0.73484951 255 0 0
-0.092494607 -0.25722623 0.7355926 255 0 0
-0.087876946 -0.2574977 0.73627192 255 0 0
-0.068738185 -0.2564601 0.73296154 255 0 0
-0.06383419 -0.25562751 0.73050725 255 0 0
-0.039749939 -0.25132608 0.71791571 255 0 0
-0.035042975 -0.25057554 0.7157259 255 0 0
-0.030434659 -0.2504105 0.71521354 255 0 0
-0.025906531 -0.25096378 0.7167576 255 0 0
-0.016343636 -0.24537712 0.70074534 255 0 0
-0.011937124 -0.24717048 0.70584542 255 0 0
-0.0074184285 -0.24741368 0.7065233 255 0 0
-0.0029062715 -0.24898225 0.71099091 255 0 0
0.0016450882 -0.247798 0.70760232 255 0 0
0.0061649582 -0.24708843 0.70557415 255 0 0
0.010524486 -0.24327233 0.69468004 255 0 0
0.014990233 -0.24345037 0.69519591 255 0 0
0.019398302 -0.24282409 0.69342005 255 0 0
0.023908671 -0.24347267 0.69528931 255 0 0
0.028434988 -0.24405381 0.69697076 255 0 0
0.03308291 -0.24537852 0.70078063 255 0 0
0.037570022 -0.24533592 0.70069033 255 0 0
0.041574083 -0.24248452 0.69258231 255 0 0
0.045742087 -0.24104708 0.68851668 255 0 0
0.050046995 -0.24052016 0.68705612 255 0 0
0.054558095 -0.24098898 0.68844414 255 0 0
0.058891669 -0.24066187 0.68756294 255 0 0
0.063373037 -0.24094184 0.68842036 255 0 0
0.067624278 -0.24036705 0.68683982 255 0 0
0.072041214 -0.24041517 0.68704325 255 0 0
0.076638997 -0.24102628 0.68885964 255 0 0
0.080059409 -0.2380693 0.68048191 255 0 0
0.084524274 -0.23836295 0.68139875 255 0 0
0.088580489 -0.23753169 0.67910326 255 0 0
0.092733815 -0.23702621 0.67774254 255 0 0
0.096916474 -0.23663726 0.67671829 255 0 0
0.10175222 -0.23780772 0.68015748 255 0 0
0.10707133 -0.23996507 0.68642414 255 0 0
0.11133354 -0.23967676 0.68569893 255 0 0
0.11434359 -0.23681672 0.67761827 255 0 0
0.11671484 -0.23289083 0.66648799 255 0 0
0.12003815 -0.23107442 0.66139507 255 0 0
0.13713382 -0.23872349 0.68363255 255 0 0
0.14018925 -0.23649848 0.67737979 255 0 0
0.14367868 -0.23511696 0.67354369 255 0 0
0.14839499 -0.23576482 0.6755231 255 0 0
0.15281802 -0.23592307 0.67610246 255 0 0
0.1573915 -0.23629825 0.677306 255 0 0
0.16014326 -0.23399132 0.6708228 255 0 0
0.16314836 -0.23216504 0.66571712 255 0 0
0.1663994 -0.23077244 0.66185516 255 0 0
0.17269611 -0.23356788 0.67000693 255 0 0
0.17783448 -0.23469922 0.67338896 255 0 0
0.18252161 -0.23519538 0.67495108 255 0 0
0.18575451 -0.2338378 0.67119431 255 0 0
0.18682081 -0.22987533 0.65995884 255 0 0
0.18865104 -0.22700681 0.65186095 255 0 0
0.19029336 -0.22404061 0.64348006 255 0 0
0.19563551 -0.22546351 0.64770544 255 0 0
0.20150492 -0.22742246 0.65347356 255 0 0
0.20864227 -0.2307038 0.66304553 255 0 0
0.21389945 -0.23181689 0.66638923 255 0 0
0.22051236 -0.23432712 0.67375207 255 0 0
0.22368504 -0.23315533 0.67052948 255 0 0
0.22463419 -0.22975308 0.66088974 255 0 0
0.22474383 -0.22563317 0.64918113 255 0 0
0.22743835 -0.22421022 0.64522862 255 0 0
0.23355421 -0.22615057 0.65095544 255 0 0
0.23617928 -0.22470184 0.64692754 255 0 0
0.24116531 -0.22551042 0.64939785 255 0 0
0.24501194 -0.22524403 0.64877278 255 0 0
0.25325456 -0.22896069 0.65962201 255 0 0
0.25702959 -0.22858278 0.65867668 255 0 0
0.25987387 -0.22740237 0.65541762 255 0 0
0.26081881 -0.22462341 0.64754814 255 0 0
0.2627266 -0.22274706 0.6422773 255 0 0
0.26586488 -0.22195531 0.64013147 255 0 0
0.2677702 -0.22017355 0.63512814 255 0 0
0.2699762 -0.21868816 0.63097686 255 0 0
0.27394488 -0.21865308 0.63100833 255 0 0
0.28528202 -0.2244152 0.64777249 255 0 0
0.29160151 -0.2261223 0.65283537 255 0 0
0.29215252 -0.22337098 0.64502466 255 0 0
0.29516774 -0.22255364 0.6427955 255 0 0
0.29829085 -0.22183871 0.64086002 255 0 0
0.30270109 -0.22208729 0.64170647 255 0 0
0.304851 -0.2206928 0.63780349 255 0 0
0.30718139 -0.21946378 0.63437587 255 0 0
0.30988842 -0.21853201 0.63180506 255 0 0
0.31514287 -0.2193974 0.6344285 255 0 0
0.31990075 -0.21989955 0.63600093 255 0 0
0.31751508 -0.21553975 0.62350798 255 0 0
0.31992206 -0.21450062 0.62061644 255 0 0
0.32036981 -0.21218894 0.61403978 255 0 0
0.32811838 -0.21471015 0.62144732 255 0 0
0.32983696 -0.21327242 0.61739528 255 0 0
0.33507916 -0.21412002 0.61995697 255 0 0
0.3375611 -0.2132044 0.61741191 255 0 0
0.34251094 -0.21385059 0.61938781 255 0 0
0.34513816 -0.2083253 0.60368043 255 0 0
0.37892145 -0.19990385 0.58033347 0 50 255
-0.18124077 -0.26777002 0.75459129 255 0 0
-0.16830137 -0.26261133 0.73975432 255 0 0
-0.15043196 -0.25630957 0.72158086 255 0 0
-0.14680585 -0.25803906 0.72631323 255 0 0
-0.14341271 -0.26030412 0.73255378 255 0 0
-0.13995068 -0.26259267 0.73886079 255 0 0
-0.1332462 -0.25874457 0.72790474 255 0 0
-0.12765634 -0.25686052 0.72247982 255 0 0
-0.12143084 -0.25350782 0.71292961 0 50 255
-0.11517181 -0.25996178 0.73084337 255 0 0
-0.10923992 -0.25700504 0.72241926 255 0 0
-0.10443693 -0.25656009 0.72106063 255 0 0
-0.099655755 -0.25612998 0.71974754 255 0 0
-0.095850945 -0.25828904 0.72571337 255 0 0
-0.090087973 -0.25512254 0.71672004 255 0 0
-0.08609204 -0.25688869 0.72158867 255 0 0
-0.081121914 -0.25578326 0.71839488 255 0 0
-0.076140858 -0.25450832 0.71472985 255 0 0
-0.071402021 -0.25393158 0.71303028 255 0 0
-0.067619301 -0.25690857 0.72131282 255 0 0
-0.03503608 -0.25512365 0.71589172 255 0 0
-0.030289205 -0.25378913 0.71210706 255 0 0
-0.0257299 -0.25383171 0.71219128 255 0 0
-0.016245658 -0.2483972 0.69688785 255 0 0
-0.011778999 -0.24839827 0.69687015 255 0 0
-0.0073715015 -0.25041112 0.70250094 255 0 0
-0.0028848406 -0.25183535 0.70648497 255 0 0
0.0016354158 -0.25055414 0.7028839 255 0 0
0.0060932077 -0.24860297 0.69740832 255 0 0
0.010557132 -0.24844658 0.69697231 255 0 0
0.015038241 -0.24866667 0.69759715 255 0 0
0.019483389 -0.2483269 0.69665599 255 0 0
0.023735356 -0.24611017 0.69045383 255 0 0
0.028207382 -0.24651301 0.69160509 255 0 0
0.03292818 -0.24868469 0.69772387 255 0 0
0.037502289 -0.24936123 0.69965267 255 0 0
0.041546691 -0.24674688 0.69235229 255 0 0
0.045463163 -0.24395029 0.68454415 255 0 0
0.04984273 -0.2439118 0.6844793 255 0 0
0.054055899 -0.2431308 0.68233502 255 0 0
0.058344115 -0.24277864 0.68139827 255 0 0
0.062034346 -0.24016015 0.67410415 255 0 0
0.067035273 -0.24262619 0.68108594 255 0 0
0.071551621 -0.24314378 0.68260294 255 0 0
0.07642711 -0.24475153 0.68718505 255 0 0
0.080330618 -0.2432407 0.68301517 255 0 0
0.083825514 -0.24071229 0.67599052 255 0 0
0.087985672 -0.24024853 0.67476672 255 0 0
0.092474341 -0.24068294 0.6760692 255 0 0
0.097216234 -0.24170779 0.67903429 255 0 0
0.10145954 -0.24145801 0.67842245 255 0 0
0.10625882 -0.24249737 0.68143624 255 0 0
0.11023448 -0.24164896 0.67914873 255 0 0
0.11425488 -0.24095902 0.67730922 255 0 0
0.11676031 -0.23724107 0.66695952 255 0 0
0.12010868 -0.23543747 0.66199219 255 0 0
0.12414929 -0.23506722 0.66105694 255 0 0
0.12944682 -0.23702259 0.66666532 255 0 0
0.13394128 -0.23742945 0.66792208 255 0 0
0.13778953 -0.23670085 0.66598696 255 0 0
0.14170593 -0.23612925 0.66449541 255 0 0
0.14567013 -0.23566806 0.66331637 255 0 0
0.15040627 -0.23644626 0.66562825 255 0 0
0.15490744 -0.2368222 0.66681027 255 0 0
0.15812923 -0.23527427 0.66257679 255 0 0
0.16152051 -0.23405246 0.65926218 255 0 0
0.16661945 -0.23530415 0.66291654 255 0 0
0.17215146 -0.23709007 0.66807926 255 0 0
0.17698155 -0.237846 0.6703428 255 0 0
