# .PCD v0.7 - Point Cloud Data file format
VERSION 0.7
FIELDS x y z
SIZE 4 4 4
TYPE F F F
COUNT 1 1 1
WIDTH 1431
HEIGHT 1
VIEWPOINT 0 0 0 1 0 0 0
POINTS 1431
DATA ascii
0.023872985 0.22277442 0.58469748
0.027619891 0.22274218 0.58463126
0.03146128 0.22338846 0.58634943
0.035341974 0.22414601 0.58836281
0.038943954 0.22316027 0.58580369
0.042722497 0.22327074 0.58612531
0.046466887 0.22319935 0.58597273
0.05050841 0.22445911 0.58931816
0.054466125 0.22519708 0.59129715
0.057985459 0.22414443 0.58857757
0.06140567 0.22286078 0.58525401
0.064721733 0.22136882 0.58138579
0.068710446 0.22221483 0.58366054
0.072345793 0.22188976 0.58286238
0.076342553 0.22265074 0.58491987
0.079720482 0.22162028 0.5822739
0.083667718 0.22219397 0.58384496
0.087453038 0.22230698 0.58420843
0.091446556 0.22291836 0.58588439
0.095149718 0.22280183 0.58564967
0.098911762 0.22282682 0.58578938
0.10270065 0.22290841 0.58608025
0.10617539 0.22232652 0.58462858
0.10930857 0.22109354 0.58146644
0.11271375 0.22047392 0.57991868
0.11644937 0.22051963 0.58012289
0.12072764 0.22155856 0.58294213
0.12466565 0.22192957 0.58400637
0.12820403 0.22158843 0.58319831
0.13141075 0.22070961 0.58097625
0.13439207 0.21951109 0.57791346
0.13756558 0.21868235 0.5758248
0.14198786 0.21983032 0.57894248
0.14599006 0.22028621 0.58023965
0.14934829 0.21977201 0.57898271
0.15146264 0.21749662 0.5730859
0.15587898 0.2185563 0.57597715
0.16133976 0.22099791 0.5825128
0.16565928 0.22180156 0.58473349
0.16895121 0.22122438 0.58331478
0.17163765 0.2198965 0.57991654
0.17504248 0.21952571 0.57904214
0.17857066 0.21932186 0.57860833
0.1821713 0.21921359 0.57842702
0.1856918 0.21901523 0.57800829
0.18980341 0.21950828 0.57941467
0.19338651 0.21938309 0.57918948
0.19775183 0.22013345 0.58127642
0.20284508 0.22165175 0.58539218
0.2093735 0.22465526 0.59343272
0.21293819 0.22442871 0.59294224
0.21359612 0.22119994 0.58451807
0.21431246 0.2181413 0.57654017
0.21911974 0.21927966 0.57965368
0.22650763 0.22292022 0.58938354
0.23118357 0.22381675 0.59186012
0.23322442 0.22217439 0.58762211
0.23749347 0.22267315 0.58904588
0.24184145 0.22322932 0.59062159
0.24562806 0.22325839 0.59080219
0.24631043 0.22050759 0.58362466
0.24500728 0.2160874 0.57202446
0.24783458 0.21538614 0.57026607
0.25648457 0.21969265 0.58176702
0.26425675 0.22313571 0.59098417
0.2673288 0.22256929 0.58958232
0.2700707 0.22174758 0.5875026
0.27607539 0.22359078 0.59248269
0.27703699 0.22135508 0.58665317
0.27888188 0.21987517 0.58282387
0.28476986 0.22158003 0.58743536
0.28829387 0.22142522 0.58711612
0.2889272 0.21908259 0.58099353
0.28528559 0.21359831 0.566535
0.29209515 0.21597819 0.57293242
0.29283619 0.21386762 0.56741667
0.30197015 0.21786365 0.57810187
0.302809 0.21585099 0.57284236
0.30918464 0.21778613 0.57805836
0.31089634 0.21642929 0.57453549
0.33141392 0.22543679 0.59860587
0.3291406 0.22135963 0.58785546
0.32707578 0.21751234 0.57771134
0.33018613 0.2171537 0.57683015
0.33480263 0.21778277 0.5785712
0.33710301 0.21690795 0.57631516
0.33383304 0.21250606 0.56468475
0.33816016 0.21298224 0.56601393
0.34371066 0.21421094 0.56934208
0.35135955 0.21670856 0.57604212
0.35652426 0.21763843 0.57857436
-0.20716675 0.21755971 0.58494085
-0.20504592 0.21927038 0.58942378
-0.20236896 0.22043917 0.59244835
-0.19880889 0.22067221 0.5929572
-0.19371274 0.21917644 0.58882159
-0.19151913 0.22097068 0.59352446
-0.18869589 0.22209626 0.59643
-0.18490385 0.22210455 0.59633482
-0.17841095 0.21880104 0.58734977
-0.17384005 0.21776372 0.5844509
-0.17025262 0.21794011 0.58481044
-0.16915911 0.22138852 0.5939486
-0.16776757 0.22459599 0.60243785
-0.1640252 0.2247332 0.60269058
-0.15967262 0.224021 0.60066658
-0.15529406 0.22323664 0.59845084
-0.15192157 0.22389555 0.60010552
-0.14760698 0.22316445 0.59803563
-0.14250466 0.22117214 0.59258854
-0.13835962 0.22059751 0.5909425
-0.13443291 0.22034878 0.59017128
-0.13173088 0.22215113 0.59489435
-0.1280653 0.22238766 0.59542501
-0.12409851 0.22209977 0.59455323
-0.1197091 0.22101361 0.59154701
-0.11562741 0.22044347 0.5899244
-0.11160908 0.21995994 0.58853614
-0.10803644 0.22035195 0.58949238
-0.10424718 0.22031465 0.58930236
-0.100835 0.2211017 0.59131908
-0.096657023 0.22020569 0.58883691
-0.093342826 0.22128496 0.59163898
-0.089691184 0.22162193 0.59245825
-0.086222552 0.22246109 0.59462225
-0.081860386 0.22096613 0.59055018
-0.077527478 0.21940942 0.58631659
-0.073444284 0.21843711 0.58364832
-0.070422836 0.22068796 0.58959454
-0.06679973 0.22120197 0.59090251
-0.063258007 0.22206375 0.59314215
-0.058829676 0.21972461 0.58683532
-0.055169899 0.2201328 0.58786958
-0.05125105 0.21949163 0.58610463
-0.047591958 0.21994977 0.58727837
-0.043593824 0.21878545 0.58412337
-0.039829548 0.21868655 0.58381635
-0.0362694 0.21980458 0.58676124
-0.032721814 0.2212669 0.59062797
-0.028799361 0.22024572 0.58786893
-0.024887791 0.21901312 0.58454913
-0.02103975 0.21800181 0.58182383
-0.017320208 0.21817343 0.582259
-0.013566426 0.2178902 0.58148372
-0.0098508317 0.21823895 0.58239859
-0.0061190398 0.21843719 0.58291519
-0.0023810468 0.21869254 0.58358765
0.0013636929 0.21862258 0.58339548
0.0050833244 0.21757935 0.58060956
0.0087834531 0.21693635 0.57889521
0.012522094 0.21734369 0.57998717
0.016296772 0.21804634 0.58187062
0.0200001 0.21771011 0.58098537
0.02373446 0.2177642 0.58114487
0.027565833 0.21857278 0.58332145
0.031446908 0.21953495 0.58591163
0.035339881 0.22036581 0.58815473
0.039038792 0.21994297 0.58705544
0.042556893 0.21866557 0.58367801
0.046442021 0.21932817 0.58548224
0.050519351 0.22073142 0.58926719
0.054480027 0.22146517 0.59126848
0.057762224 0.21952493 0.58613348
0.061119258 0.21808888 0.58234727
0.064391717 0.21653396 0.57824582
0.068213314 0.21689449 0.57926226
0.071710244 0.21623887 0.57756758
0.07585638 0.21750928 0.58102024
0.079577066 0.21749799 0.58105242
0.083568558 0.2181949 0.58297944
0.087304123 0.21819262 0.58304113
0.091540799 0.21939164 0.58631581
0.095337853 0.21948418 0.58663636
0.098802626 0.2188338 0.58497351
0.10262401 0.21899208 0.58547449
0.10592189 0.21806163 0.5830667
0.1088298 0.21641909 0.57875615
0.11186995 0.21513915 0.57541633
0.11591768 0.21581687 0.57731414
0.12033021 0.21711104 0.58086377
0.12448651 0.21787935 0.58300906
0.12879913 0.21886866 0.58574826
0.13236549 0.2185699 0.58504224
0.13581537 0.21810064 0.58388102
0.13802636 0.21572036 0.57760412
0.14163508 0.21559182 0.57735658
0.14562003 0.21602809 0.57862318
0.15001364 0.21703409 0.58141762
0.15178981 0.21429627 0.57418299
0.15530695 0.21408769 0.57372481
0.16028513 0.21585645 0.57856733
0.16497849 0.21717069 0.58219403
0.16880652 0.21731314 0.58268076
0.17116684 0.21560083 0.57819432
0.17545785 0.2163415 0.58028638
0.1795734 0.21683976 0.58172947
0.18290275 0.21638787 0.58062392
0.1864213 0.21617343 0.58015567
0.19024573 0.21631519 0.58064365
0.19471869 0.21717504 0.58305979
0.19799192 0.21668972 0.58186489
0.20141716 0.21638569 0.58115655
0.20730552 0.21869116 0.58745748
0.21198489 0.21966217 0.59017551
0.21508314 0.21898966 0.58847767
0.21504337 0.21519998 0.57840085
0.21838257 0.21486247 0.57760018
0.225601 0.21828981 0.58692151
0.22889991 0.21787487 0.58591312
0.23311353 0.21833001 0.58724415
0.23541304 0.21700652 0.58379006
0.24100246 0.21870974 0.58847809
0.24362852 0.21771289 0.58590078
0.24493034 0.21558061 0.58026558
0.24423327 0.21177842 0.57013196
0.24770054 0.21164565 0.56987423
0.25535512 0.21504311 0.5791226
0.26294589 0.21829118 0.58797073
0.26670924 0.21831541 0.58813602
0.27207068 0.21962917 0.59177488
0.27447349 0.21855143 0.58896893
0.27699658 0.21759719 0.58649385
0.27934754 0.21653494 0.58372557
0.28498566 0.21801528 0.58781046
0.28667909 0.21647869 0.58376002
0.28691486 0.21389477 0.576882
0.28763023 0.21172895 0.57112861
0.29517353 0.21458074 0.57890898
0.29653198 0.21292163 0.57451856
0.30067575 0.21327859 0.57556617
0.30198464 0.21164028 0.57122737
0.3054283 0.21151924 0.57098162
0.30640057 0.20970966 0.56617558
0.32371497 0.21649384 0.58464986
0.33035681 0.21843842 0.58997881
0.33139923 0.21667854 0.58530092
0.33281916 0.21520178 0.58138508
0.33368322 0.21340185 0.57659358
0.3334679 0.21095808 0.57005942
0.33380604 0.20891304 0.56459981
0.33839044 0.2095408 0.56636149
0.41050401 0.21164834 0.57300222
-0.2871365 0.21523486 0.59100789
-0.28379521 0.21553914 0.59174162
-0.2785089 0.21435472 0.58838749
-0.27493125 0.21447116 0.58860314
-0.27270222 0.21565741 0.59175318
-0.19922318 0.21734199 0.59406537
-0.1934697 0.21514952 0.5879541
-0.19256595 0.21837026 0.59663552
-0.18841036 0.21795905 0.59539223
-0.18438305 0.21768251 0.59451753
-0.17786254 0.21438932 0.58540648
-0.17287783 0.21284607 0.58107668
-0.17008014 0.21398696 0.58407545
-0.17039815 0.21918695 0.59815067
-0.16830184 0.22144854 0.60420406
-0.16341724 0.22006156 0.60030282
-0.15775783 0.21753977 0.59330893
-0.15411824 0.21774784 0.59376264
-0.15030603 0.21771654 0.59356463
-0.14668952 0.21797465 0.59415656
-0.14217396 0.2168752 0.59104985
-0.13869704 0.21734351 0.59221745
-0.13391627 0.21573786 0.58773589
-0.13117893 0.21742666 0.59223086
-0.12779267 0.21810846 0.59398353
-0.12388801 0.21792041 0.59336877
-0.11954531 0.21692578 0.59056026
-0.11539601 0.21622892 0.58856487
-0.11223781 0.21740502 0.59166938
-0.10859222 0.21768636 0.59234041
-0.10452526 0.21711308 0.59068811
-0.10031931 0.21619749 0.58810741
-0.096733727 0.21659973 0.58911407
-0.093573079 0.21802501 0.59290481
-0.090174548 0.21899338 0.59545469
-0.086494327 0.21933322 0.59629762
-0.082119547 0.2178621 0.59222019
-0.077333607 0.21510494 0.58465111
-0.073265798 0.21416657 0.5820294
-0.070420392 0.21689275 0.589369
-0.066934168 0.21784268 0.59188372
-0.063025355 0.21744908 0.59075087
-0.058651906 0.21529984 0.58485216
-0.054937862 0.21544316 0.58518469
-0.051226795 0.21562035 0.5856123
-0.047558218 0.2160189 0.58664417
-0.04359087 0.21501261 0.58386433
-0.039851807 0.2150493 0.58392018
-0.036186781 0.21553497 0.58519846
-0.032489397 0.21591848 0.58620244
-0.0287822 0.21632905 0.58728325
-0.024987755 0.21610926 0.58665627
-0.021150643 0.21537749 0.58464301
-0.017230915 0.21330789 0.57900208
-0.013463181 0.21249981 0.57678902
-0.0097741801 0.21279351 0.5775702
-0.006094174 0.21376307 0.58018929
-0.0023754078 0.21428706 0.58160233
0.0013573651 0.21413542 0.5811854
0.0050855549 0.21401215 0.58084881
0.0087894229 0.21340206 0.57919461
0.012514168 0.21351059 0.57949424
0.016228322 0.21342985 0.57928371
0.01998345 0.21381746 0.58034801
0.023654999 0.21332945 0.57903898
0.027496543 0.21429878 0.58168924
0.031231107 0.2143022 0.58172125
0.035210542 0.21580572 0.58582872
0.03881792 0.21495879 0.58355922
0.042427808 0.21427362 0.58173198
0.045932535 0.21321119 0.57888359
0.050184309 0.215516 0.585181
0.053865723 0.21522109 0.58442312
0.057388965 0.2143738 0.58216816
0.060936395 0.21371496 0.58042771
0.064313874 0.21257034 0.5773707
0.067816183 0.21194062 0.57571471
0.071588732 0.21217693 0.57641417
0.075771645 0.21354672 0.58019608
0.079829693 0.21445291 0.58272195
0.083546311 0.21440199 0.58265007
0.087088965 0.21392819 0.58143151
0.090822183 0.21394227 0.58154142
0.094765373 0.21443047 0.58294284
0.098381229 0.21416917 0.58230931
0.10224838 0.21445413 0.58316326
0.10563827 0.21375348 0.58133912
0.10849084 0.21205036 0.57678998
0.11142671 0.21061705 0.57297558
0.11490782 0.21027289 0.57212561
0.11977198 0.21240288 0.57801002
0.12389132 0.21312407 0.5800637
0.12790576 0.21362814 0.5815289
0.13103597 0.21266881 0.57901186
0.13474205 0.21267127 0.57911462
0.13767777 0.2114903 0.57599586
0.14127877 0.21136639 0.57575667
0.14509954 0.21156928 0.57640922
0.14874756 0.21151662 0.57636678
0.15116769 0.20976281 0.57168913
0.15415955 0.20886648 0.5693481
0.15888312 0.21030374 0.57336974
0.16308849 0.21100594 0.57538897
0.16756755 0.21202359 0.57827014
0.17053273 0.21112329 0.57592118
0.17494209 0.21201123 0.57845092
0.17942718 0.21295251 0.58112758
0.183521 0.21340084 0.58246028
0.18895561 0.21535958 0.58791733
0.1917388 0.21427915 0.58507818
0.1959004 0.21475106 0.5864777
0.19798292 0.21296903 0.58172113
0.20126538 0.21251968 0.5806036
0.20400946 0.21152839 0.5780049
0.20789666 0.21173663 0.5786835
0.21172099 0.21187477 0.57917041
0.21442319 0.21090463 0.57662719
0.22022395 0.21296366 0.58236611
0.22548297 0.21443939 0.58651155
0.22967857 0.2148723 0.58780527
0.23160639 0.21320385 0.58334935
0.23417908 0.21217243 0.58063442
0.2368831 0.21129027 0.57832646
0.23971131 0.21054426 0.57638967
0.2438228 0.21093099 0.57755291
0.24554211 0.20926753 0.57310122
0.25036153 0.21025634 0.57591182
0.25460953 0.21074378 0.57734901
0.25964496 0.21186003 0.58050859
0.26402512 0.21241789 0.58213794
0.2692233 0.21360947 0.585504
0.27191904 0.21281023 0.58341217
0.27396861 0.21153367 0.58000964
0.27911401 0.21264969 0.58316618
0.2837714 0.21336962 0.58523619
0.28336594 0.21031341 0.57694656
0.28374696 0.20791152 0.57044816
0.28693995 0.20760469 0.56969559
0.29396701 0.21004504 0.57648116
0.29591554 0.20884147 0.57326508
0.30071664 0.20965588 0.57558662
0.30061826 0.20707597 0.56858736
0.3069559 0.20893811 0.57378328
0.30795878 0.20716797 0.56900293
0.31461337 0.20919685 0.57465541
0.32071096 0.21081327 0.57917476
0.32808143 0.21322048 0.58586663
0.33210948 0.21342604 0.58650839
0.33236742 0.21123105 0.58055103
0.33452943 0.21028103 0.57801259
0.33513975 0.20838678 0.57287616
0.33620548 0.20681325 0.56861866
0.33993351 0.20689347 0.56890595
0.34498605 0.19941714 0.54864597
-0.27957639 0.2086346 0.58287162
-0.27740026 0.20978063 0.58596951
-0.27466482 0.21052909 0.58795464
-0.27059761 0.21026346 0.58710611
-0.26580763 0.20942104 0.58464652
-0.26091585 0.20847362 0.58189344
-0.25415081 0.2059809 0.57482785
-0.25209653 0.20728922 0.57836938
-0.24885333 0.20764425 0.5792492
-0.24465431 0.20720059 0.57790005
-0.24180488 0.20790383 0.57974869
-0.23842981 0.20817007 0.58037728
-0.18260533 0.211824 0.58864927
-0.17720406 0.20987044 0.58310163
-0.17320386 0.20952825 0.5820328
-0.16966806 0.20974535 0.58251822
-0.16965069 0.2144192 0.59537905
-0.16750875 0.21656063 0.60120505
-0.16196133 0.21429668 0.59480202
-0.1573827 0.21323685 0.59174377
-0.1532363 0.21272513 0.59020853
-0.15072338 0.21451254 0.5950526
-0.1463303 0.21364754 0.59253973
-0.14209373 0.21297139 0.59055263
-0.1376413 0.21192616 0.58754438
-0.13473742 0.21327366 0.59117121
-0.13097382 0.21329904 0.59113389
-0.12715168 0.21322794 0.59083104
-0.12305003 0.21266967 0.58918035
-0.11928196 0.21267103 0.58908206
-0.11659138 0.21465649 0.59448057
-0.11336671 0.21575961 0.59743619
-0.10941841 0.21551466 0.59666073
-0.104545 0.21336421 0.59061301
-0.10012663 0.21201611 0.58679014
-0.096057862 0.21133226 0.58480889
-0.092927285 0.21274096 0.58862036
-0.089606456 0.21381512 0.59150779
-0.085894652 0.21401022 0.59196544
-0.082026847 0.21381702 0.59135175
-0.077842742 0.21274088 0.58829939
-0.074041337 0.21265462 0.58798754
-0.070642784 0.21377845 0.59102422
-0.066814505 0.21365581 0.59061748
-0.062704928 0.21256517 0.5875383
-0.058477361 0.21090978 0.58290201
-0.054752871 0.21096691 0.58300221
-0.050945759 0.21069106 0.58218557
-0.047375031 0.21142678 0.58416736
-0.04377551 0.21214977 0.58611685
-0.040069941 0.21244675 0.58689249
-0.03616352 0.21163037 0.58459598
-0.032321356 0.21104492 0.582941
-0.028545184 0.21079388 0.5822134
-0.024918817 0.21174055 0.58479732
-0.021067036 0.21076848 0.58208549
-0.017233619 0.20960099 0.57883787
-0.013466972 0.20882756 0.57668203
-0.0097995317 0.20959005 0.57877135
-0.0061381655 0.21149495 0.58401883
-0.0023985861 0.21245918 0.58667213
0.0013608268 0.21118951 0.58316058
0.0050877491 0.21043734 0.58108175
0.0088005187 0.20998348 0.57983017
0.012523691 0.20997356 0.57980818
0.01616483 0.20890781 0.57687402
0.019882651 0.20904557 0.57726687
0.023547767 0.20867287 0.57625365
0.027323114 0.20924553 0.57785463
0.031037832 0.2092724 0.57795185
0.035016168 0.21088119 0.58242154
0.03869722 0.21056186 0.58156979
0.042201485 0.20942155 0.5784536
0.045644481 0.20818621 0.57507795
0.049329452 0.20815693 0.57503688
0.053179935 0.20878159 0.57680565
0.057025496 0.20930693 0.57830364
0.0606612 0.20904493 0.57762945
0.064081445 0.20811351 0.57510823
0.067522459 0.20734732 0.57304633
0.071392186 0.20790891 0.5746569
0.07565131 0.20949376 0.57909924
0.079427995 0.20965691 0.579615
0.082821898 0.20884034 0.57742488
0.086545393 0.20888932 0.57763028
0.090113834 0.20857549 0.5768351
0.094127052 0.20927542 0.57884616
0.098304786 0.21027425 0.58168709
0.1022636 0.21074907 0.58308136
0.10560258 0.20995817 0.58097607
0.10866704 0.20869404 0.57756263
0.11165386 0.20736903 0.57398194
0.11490529 0.20660448 0.57195365
0.11922358 0.20774625 0.57520485
0.12326316 0.20834862 0.57696521
0.12728894 0.20889345 0.57856846
0.1305379 0.20816875 0.5766573
0.1345557 0.20867638 0.57816136
0.1376154 0.20771089 0.57558519
0.14210111 0.20889208 0.57895929
0.14563525 0.20865007 0.57839078
0.14858337 0.20760143 0.57558674
0.15112457 0.20604877 0.5713852
0.15455341 0.20575123 0.57066423
0.15933512 0.20722699 0.57486337
0.16246147 0.206532 0.5730418
0.16647586 0.20697179 0.57436961
0.17096983 0.20797612 0.57726544
0.17588872 0.20944408 0.58145028
0.17928438 0.20907524 0.58053684
0.18264204 0.20867804 0.57954478
0.18815356 0.21070877 0.58529687
0.19213909 0.21098492 0.58617669
0.19645046 0.2116016 0.58800328
0.19803856 0.20931697 0.58176696
0.19828868 0.20572823 0.57190305
0.20004265 0.20380133 0.56665581
0.20354944 0.20369692 0.56647474
0.20973602 0.2062313 0.57363319
0.21320005 0.20604779 0.57323283
0.21950015 0.20856534 0.5803479
0.22523594 0.21047232 0.58576596
0.22979246 0.21123326 0.58799547
0.23319018 0.21092178 0.5872395
0.23458162 0.2088342 0.58153677
0.23759526 0.20823322 0.57997173
0.24082372 0.20783615 0.57897329
0.24592173 0.2090403 0.58243525
0.24655923 0.20647351 0.57538885
0.25154459 0.20756961 0.57854837
0.25566363 0.20792969 0.5796563
0.25971088 0.20822205 0.58057487
0.26313561 0.20801422 0.58009773
0.26809296 0.2090071 0.58296835
0.27089822 0.20831807 0.58114678
0.27369049 0.20763776 0.57934779
0.27759552 0.20780864 0.57992226
0.27973342 0.20666957 0.57683957
0.27919716 0.20360981 0.56839269
0.28227443 0.20322977 0.5674237
0.28765833 0.20449923 0.57105917
0.29360092 0.20612942 0.57570195
0.29838347 0.20691529 0.57798624
0.30330285 0.20777586 0.58047855
0.30385935 0.20566297 0.57466161
0.30995801 0.20730691 0.57934028
0.30682784 0.20281222 0.56686139
0.31202614 0.20386301 0.56987917
0.31379813 0.20267685 0.56664228
0.32518864 0.2076598 0.58065265
0.3272576 0.20664541 0.5778935
0.33041996 0.2063363 0.57710457
0.33232602 0.20525807 0.57416242
0.33375183 0.20390983 0.57046241
0.33838752 0.20453063 0.5722692
0.34069842 0.20374808 0.57014781
0.34251073 0.19453888 0.54467934
0.3523038 0.19811028 0.5547353
0.43577376 0.20960543 0.58768111
-0.27582341 0.20218326 0.57497489
-0.27303717 0.2028188 0.57667828
-0.27165681 0.20453024 0.58143836
-0.26664543 0.20351741 0.57845217
-0.26279664 0.20337622 0.57794285
-0.25992706 0.20399964 0.57960498
-0.25584784 0.20367804 0.5785808
-0.25259537 0.20401496 0.57942623
-0.24630083 0.20186865 0.57321888
-0.24288359 0.20205176 0.57362622
-0.24260291 0.20488948 0.58156747
-0.24116187 0.20681992 0.5869298
-0.23571868 0.20532495 0.58257031
-0.22900581 0.20265886 0.5748896
-0.22538635 0.20268837 0.57485634
-0.22038552 0.20145625 0.57124507
-0.21879864 0.20335595 0.57651335
-0.21610807 0.20427728 0.57900584
-0.17259662 0.2050876 0.579853
-0.16945939 0.20576885 0.5816595
-0.16816409 0.2087675 0.59001529
-0.16669734 0.21168591 0.59814161
-0.16245566 0.21113491 0.59646422
-0.15675336 0.20861378 0.5892238
-0.15157865 0.20668826 0.58366907
-0.14902511 0.20833005 0.58818954
-0.14600113 0.2093823 0.59104526
-0.14163511 0.20851493 0.58848339
-0.13731696 0.20767274 0.58599496
-0.13367222 0.20783062 0.58633012
-0.1312689 0.20998359 0.59229434
-0.12627544 0.20799826 0.58658737
-0.12195793 0.20703909 0.58377761
-0.11868911 0.20785606 0.58597779
-0.11581715 0.20944421 0.59035277
-0.11235426 0.21003503 0.59191781
-0.10876 0.21041316 0.59288502
-0.10420508 0.20889311 0.5885064
-0.0991254 0.20616779 0.58073646
-0.09503784 0.20537406 0.57841152
-0.091935687 0.20673206 0.58214879
-0.089108251 0.20884898 0.58802426
-0.085398525 0.20899399 0.58834934
-0.081863999 0.20960118 0.5899781
-0.078133233 0.20974064 0.59029293
-0.074286647 0.20956789 0.58973187
-0.07031551 0.20900665 0.58808082
-0.066260383 0.20811825 0.5855127
-0.062387019 0.20772853 0.58435118
-0.058367062 0.20676997 0.58159298
-0.054590754 0.20660287 0.58106452
-0.050852556 0.20656638 0.58090663
-0.047327075 0.20745686 0.58335876
-0.043905828 0.20899692 0.58764017
-0.040306006 0.20989686 0.59012461
-0.036324121 0.20878792 0.58696467
-0.03231404 0.20724171 0.58257955
-0.028452452 0.20636809 0.58008909
-0.024708016 0.20620947 0.57961202
-0.021047752 0.20682207 0.5813064
-0.017337808 0.20710604 0.5820806
-0.013545317 0.20628974 0.57976604
-0.0098222075 0.20631251 0.57981354
-0.0061420095 0.20781632 0.58402675
-0.0024084118 0.20940123 0.58847141
0.0013622498 0.20790422 0.58425885
0.0050788964 0.20640761 0.58005118
0.0087829614 0.20588225 0.57857662
0.012559343 0.20686015 0.58133018
0.016213594 0.20583898 0.57846963
0.01992945 0.20583478 0.57847065
0.023586486 0.20531978 0.5770396
0.027315963 0.20548961 0.57753682
0.030977489 0.20516874 0.57665855
0.034913797 0.20654193 0.58054543
0.038601145 0.20631948 0.57995087
0.042060498 0.20502484 0.57634568
0.045348633 0.20317258 0.57117587
0.049253032 0.20415203 0.57396996
0.053123657 0.20486487 0.57601821
0.05709156 0.20583574 0.57879555
0.060657125 0.20532607 0.57741314
0.064124309 0.20456135 0.57531625
0.067822315 0.2045763 0.57541507
0.071932837 0.20576981 0.57883221
0.076160304 0.2071643 0.58281851
0.079703234 0.20665348 0.58144772
0.082707539 0.20485438 0.57645428
0.086278014 0.20455167 0.5756737
0.089814678 0.20419703 0.57474941
0.093418993 0.20401825 0.57432258
0.097104236 0.20402318 0.57441527
0.10183734 0.20614903 0.58048254
0.10576227 0.20654686 0.58168739
0.10877188 0.20519094 0.57795525
0.1116792 0.20373787 0.57395023
0.11555588 0.20408961 0.57503134
0.11934365 0.20426758 0.57562506
0.1229504 0.20413442 0.57534391
0.12665203 0.20416217 0.57551801
0.13037959 0.204229 0.57580411
0.13464078 0.2051052 0.57837433
0.13820551 0.20490208 0.57790279
0.14211349 0.20520529 0.57886082
0.1458499 0.20525183 0.57909632
0.14863044 0.20398426 0.57562494
0.15169187 0.20315431 0.57338858
0.15605035 0.20405975 0.57605135
0.16097039 0.20564094 0.58062404
0.16358818 0.20427613 0.5768798
0.1665595 0.20340334 0.57452464
0.17046484 0.20368432 0.57542878
0.17533164 0.20507814 0.57947832
0.17880787 0.20482162 0.57886589
0.18197145 0.20422468 0.57729131
0.18601829 0.20462319 0.57853097
0.19072835 0.20572168 0.58175069
0.19508657 0.20640604 0.58380067
0.19741403 0.20495659 0.57981497
0.19824065 0.202031 0.57165098
0.19997084 0.20011538 0.56634206
0.20501879 0.20152909 0.5704549
0.21059726 0.20340604 0.57588083
0.21378504 0.2029493 0.57470024
0.21827362 0.20372218 0.57700127
0.22373386 0.20536141 0.58175719
0.22842607 0.20625389 0.58439845
0.23029651 0.20461084 0.57985479
0.23193642 0.2028181 0.57488441
0.23734246 0.20432332 0.57926124
0.24184819 0.20501943 0.58134472
0.24541545 0.20491111 0.58114666
0.24482933 0.20138961 0.57126588
0.2460323 0.19942135 0.5657872
0.25353923 0.20254594 0.5747574
0.25932926 0.20422976 0.57964075
0.2649892 0.20576553 0.5841046
0.2691783 0.20613265 0.58525062
0.27168635 0.20522007 0.58276206
0.27470961 0.20471606 0.58143187
0.27721629 0.20384565 0.57905912
0.27719629 0.20116444 0.57153946
0.27896038 0.19983061 0.56784475
0.28144068 0.19903737 0.56568384
0.28483698 0.19890384 0.56539625
0.28988889 0.19991541 0.56836271
0.29762039 0.20272753 0.57644838
0.30339497 0.20415469 0.58059645
0.30471474 0.20258605 0.57622313
0.31077513 0.20416905 0.58081263
0.31057203 0.20164829 0.57372618
0.31183535 0.20012704 0.56948012
0.31343552 0.19885437 0.56593883
0.32330894 0.20280007 0.57724833
0.32757425 0.2031792 0.57840621
0.33116898 0.20313866 0.57836789
0.33529091 0.20341896 0.57924139
0.33318168 0.19995369 0.56944662
0.33275557 0.19756198 0.56270546
0.33572417 0.19721508 0.56178576
0.3469848 0.20169553 0.57461691
0.3522158 0.20261462 0.57730222
0.3517217 0.20025526 0.5706442
0.34830952 0.19629936 0.55943292
0.34993559 0.19523391 0.55645597
0.35683694 0.19710362 0.5618434
-0.33006653 0.20052135 0.58199286
-0.32581362 0.2001671 0.5808804
-0.27308381 0.19919068 0.57670236
-0.27295294 0.20179528 0.58413488
-0.26797378 0.200838 0.58125466
-0.2645804 0.20105915 0.58178419
-0.2630685 0.20273671 0.58652562
-0.2607471 0.20382968 0.58957326
-0.25489908 0.20215765 0.58462226
-0.24635546 0.19826694 0.57325733
-0.24513289 0.20024002 0.57884663
-0.24516924 0.20331725 0.58762389
-0.24119382 0.2031114 0.58690989
-0.2342869 0.20039183 0.57893324
-0.22922422 0.19918819 0.57533759
-0.22515306 0.19882128 0.57415903
-0.22084564 0.19823034 0.57233346
-0.21839744 0.19931649 0.57534915
-0.21498552 0.19954526 0.57588875
-0.20998231 0.19827954 0.5721153
-0.20465891 0.19666162 0.56732708
-0.20186795 0.19746293 0.56951797
-0.19851819 0.19773701 0.57018757
-0.17466827 0.20379877 0.58667195
-0.17076507 0.20360729 0.58599812
-0.16761704 0.20432794 0.58794975
-0.1649071 0.20562808 0.59156847
-0.16100954 0.20547374 0.59100282
-0.15645052 0.20444776 0.58793187
-0.1514966 0.2028428 0.58319855
-0.14862299 0.20401272 0.58644456
-0.14600711 0.20560625 0.59090799
-0.14133094 0.20430626 0.58705664
-0.13713913 0.20365483 0.58507133
-0.13428569 0.20501035 0.58885282
-0.13118404 0.20605442 0.59174013
-0.12574627 0.20338227 0.58395785
-0.12162257 0.20273717 0.58199924
-0.1181921 0.20324358 0.58334821
-0.11515112 0.20447484 0.58677876
-0.11141164 0.20450725 0.58677036
-0.10804481 0.20525002 0.58880204
-0.10390825 0.20453168 0.58664429
-0.099132225 0.20245363 0.58059037
-0.094995581 0.2015705 0.57796699
-0.091808967 0.20271359 0.58115584
-0.088252708 0.20310296 0.58218563
-0.084618419 0.2033394 0.58277959
-0.081459522 0.20479314 0.58686435
-0.078220882 0.20617779 0.59075302
-0.074211001 0.20556726 0.58892751
-0.070039697 0.20442048 0.58556938
-0.066156648 0.20403288 0.58438969
-0.062367853 0.20390721 0.58396333
-0.058313694 0.20284262 0.58085185
-0.054332171 0.20190287 0.57810146
-0.050444566 0.2012002 0.57603389
-0.04688555 0.20180097 0.57770133
-0.043614559 0.20385148 0.58352166
-0.040075816 0.20491877 0.58653033
-0.036260881 0.20464912 0.58571571
-0.032303918 0.20342305 0.58216757
-0.028342342 0.2018435 0.57761204
-0.024594132 0.20153694 0.57670337
-0.020910902 0.20174901 0.57728243
-0.01730966 0.20301472 0.58087969
-0.013531642 0.20233375 0.57891077
-0.0098079732 0.20225796 0.57867712
-0.0061077578 0.2028701 0.58041531
-0.0023954336 0.20437226 0.58470368
0.0013576506 0.20369752 0.58276761
0.0050664246 0.20224331 0.57860529
0.0087575978 0.20161441 0.57680804
0.012513731 0.20240997 0.57908976
0.016244475 0.20252407 0.57942557
0.019940667 0.20224503 0.57864034
0.023610983 0.20183246 0.57747662
0.027218049 0.20106465 0.57530028
0.030807538 0.20036614 0.57332551
0.034666847 0.20138426 0.57626635
0.038359512 0.20133126 0.57614589
0.041891914 0.20052053 0.57386047
0.045322642 0.1993937 0.57067353
0.049283881 0.20059489 0.57415277
0.053468194 0.20247357 0.5795753
0.057380863 0.20314606 0.58154917
0.060725547 0.20184851 0.5778864
0.06424205 0.20123871 0.57619542
0.067952842 0.20127086 0.57634562
0.071841978 0.20180081 0.57792443
0.075808264 0.20248486 0.57994789
0.079300635 0.20189841 0.57833552
0.082623377 0.20095195 0.57569426
0.086355627 0.20103993 0.57601911
0.089823909 0.20053153 0.57463771
0.093184963 0.19983336 0.57271469
0.096676573 0.19945765 0.57171792
0.10129281 0.201345 0.57721102
0.10557859 0.20246567 0.58050984
0.10874464 0.20143601 0.57764566
0.11223823 0.20106098 0.57666028
0.11626484 0.20163444 0.57839745
0.12018426 0.20199238 0.57951903
0.12305801 0.20062426 0.57568991
0.12684235 0.20077725 0.57622683
0.13065639 0.2009674 0.57687229
0.13459575 0.20133464 0.57802814
0.13813071 0.2010936 0.57743925
0.14218582 0.2016028 0.57900637
0.14588916 0.20160015 0.57910496
0.14905377 0.20087177 0.57711983
0.15313008 0.20137766 0.57868201
0.15766215 0.20244502 0.58185947
0.1622747 0.2035642 0.58518827
0.16512212 0.20246877 0.58215159
0.16770297 0.20110206 0.57833433
0.17088078 0.20049481 0.57670081
0.17532092 0.20136316 0.5793125
0.17873332 0.20103972 0.5784964
0.18153293 0.20005426 0.57577497
0.18483104 0.19964641 0.57471561
0.18973707 0.20095758 0.57860553
0.19419493 0.20175324 0.58101261
0.19732644 0.20116702 0.57944041
0.19834766 0.19849066 0.57184607
0.20122145 0.19773149 0.56977284
0.20554368 0.19839744 0.57180619
0.21145019 0.20054282 0.57810491
0.21564232 0.20101677 0.57958663
0.2183549 0.20011887 0.57711244
0.22252554 0.20056504 0.5785135
0.2257949 0.20019761 0.57756746
0.22838621 0.19925055 0.57494801
0.23180519 0.19904415 0.57446444
0.23806691 0.20124738 0.58093572
0.24279541 0.20210701 0.58352959
0.24400163 0.20005307 0.57770979
0.24279922 0.19611461 0.56644386
0.24632487 0.19605453 0.56637692
0.24906854 0.19538286 0.56454182
0.258928 0.20023312 0.57866305
0.26554838 0.2024779 0.58525735
0.27081117 0.20363995 0.58872271
0.2739985 0.20323102 0.58764565
0.27805209 0.20346707 0.58843219
0.27828082 0.2009352 0.58121139
0.27903804 0.19884625 0.57526821
0.28034896 0.19720082 0.57060504
0.28376141 0.19705684 0.57028413
0.28291357 0.19399525 0.56151658
0.29047704 0.19670588 0.56945515
0.3000896 0.20072058 0.58117074
0.30323046 0.20036177 0.58022344
0.3034938 0.19813313 0.57385844
0.30806521 0.19873644 0.57569367
0.31005791 0.1976817 0.57272398
0.31288689 0.19717842 0.57134986
0.31476197 0.19609249 0.56828505
0.32268116 0.19875397 0.57607973
0.32725626 0.19931933 0.57779831
0.33176968 0.19983509 0.57937199
0.33082339 0.19708709 0.57148075
0.32847816 0.19357415 0.56136727
0.32993627 0.19235379 0.557899
0.33796269 0.19494814 0.56549358
0.34907272 0.19924833 0.57803714
0.35106316 0.19830801 0.57537705
0.35116449 0.19633088 0.56970602
0.35162973 0.19459534 0.56473309
0.35549846 0.19475935 0.5652706
0.36075279 0.19567174 0.56797886
0.37062499 0.19520085 0.56678176
0.3885881 0.19523349 0.56712526
-0.3035363 0.19397801 0.57296395
-0.30074063 0.19451347 0.57445067
-0.30142605 0.19734119 0.58270371
-0.29888791 0.19810244 0.58485168
-0.27176335 0.19722125 0.58151203
-0.26650044 0.19606085 0.57798016
-0.26131448 0.19492559 0.5745225
-0.26139909 0.19774547 0.58272004
-0.25918752 0.19888441 0.58596069
-0.25522438 0.19869301 0.58528006
-0.24821232 0.19608743 0.57748878
-0.24857536 0.19931749 0.58688241
-0.24658446 0.20072977 0.59091991
-0.24041706 0.19873348 0.58492255
-0.23287995 0.19552463 0.57535857
-0.22944045 0.1957088 0.57578009
-0.22670044 0.19650534 0.57800204
-0.22177759 0.19540501 0.57464397
-0.21950327 0.19664061 0.57815474
-0.21547541 0.19632077 0.57709128
-0.21094447 0.19552374 0.57462513
-0.20696823 0.1952219 0.57361495
-0.20362641 0.19551848 0.57436264
-0.19961771 0.19517408 0.57322717
-0.1975875 0.19678752 0.57784092
-0.1946328 0.19752404 0.57987833
-0.19071558 0.19729356 0.57907647
-0.18481931 0.19496641 0.57212245
-0.16468994 0.20157795 0.59064025
-0.16026442 0.20075873 0.58811688
-0.15632832 0.20052819 0.58731955
-0.15147091 0.19907559 0.58294511
-0.14873323 0.20040615 0.58672148
-0.14511545 0.20058918 0.58713877
-0.14056058 0.19945242 0.58369482
-0.13704684 0.19977148 0.58451313
-0.13354199 0.20012191 0.58542454
-0.13016663 0.20069249 0.58698088
-0.12493223 0.19834566 0.58000726
-0.12140094 0.19864203 0.5807659
-0.11770621 0.19868149 0.58077496
-0.11484327 0.2001735 0.58503145
-0.11059699 0.19927391 0.58229989
-0.10681035 0.19916882 0.58189267
-0.10307925 0.19916366 0.58177966
-0.098903216 0.1982664 0.57906365
-0.095372729 0.19864397 0.5800736
-0.092116579 0.19964701 0.58291197
-0.088198304 0.1992394 0.58163387
-0.084573418 0.19948806 0.5822745
-0.081211939 0.20040992 0.5848825
-0.077901289 0.20155294 0.58813792
-0.073504835 0.19986026 0.5831219
-0.069672599 0.19960268 0.58229679
-0.065958545 0.19967395 0.58243406
-0.062463697 0.20045753 0.58465219
-0.058487836 0.19969922 0.58237648
-0.054395594 0.1984131 0.57856554
-0.050475311 0.19761197 0.57617259
-0.046990193 0.19852288 0.57877493
-0.04349279 0.19953427 0.58167309
-0.039752293 0.19951604 0.58157307
-0.035980411 0.19932055 0.58096004
-0.032303456 0.19966692 0.58192998
-0.028427865 0.1987159 0.57912242
-0.024603669 0.19789223 0.57668996
-0.020839378 0.19734411 0.57506448
-0.01725154 0.19859146 0.57867461
-0.013483827 0.19788539 0.57659644
-0.0097898329 0.19813691 0.57731229
-0.0060606194 0.19754875 0.57558542
-0.002373992 0.19868378 0.57888299
0.0013499823 0.19905159 0.57994896
0.0050789881 0.19907543 0.58001667
0.0087528238 0.19783159 0.57639462
0.012493507 0.19838886 0.57802409
0.01620481 0.19833077 0.57786459
0.020004775 0.19917707 0.58034378
0.023616567 0.19817814 0.57745039
0.027271643 0.1977644 0.57626569
0.03081687 0.19674832 0.57332933
0.034473557 0.19658485 0.5728811
0.03815591 0.19658528 0.572914
0.041922774 0.19698268 0.57410747
0.045380998 0.19598298 0.57123256
0.049044568 0.19595343 0.57118857
0.053186517 0.19770628 0.57634395
0.057258412 0.19898759 0.58012897
0.060555544 0.19758438 0.57609075
0.06390693 0.19650978 0.57301319
0.067586467 0.19650637 0.57306206
0.071577109 0.19736125 0.57561743
0.075483464 0.19791128 0.57728714
0.079443708 0.19854458 0.57920319
0.083014242 0.19819096 0.57824326
0.086580828 0.19785865 0.57734811
0.089907445 0.19702794 0.57500082
0.093033031 0.19583963 0.57161194
0.09636046 0.19515035 0.56968141
0.10080314 0.19668764 0.57425356
0.10506092 0.19776864 0.57749701
0.10884278 0.19791076 0.5780018
0.11230029 0.19747329 0.57681608
0.11617549 0.1977749 0.57779121
0.11918885 0.19663616 0.57456017
0.12265047 0.19628315 0.57362616
0.12623675 0.19614452 0.57332039
0.12977028 0.19593419 0.57280654
0.13335827 0.19581556 0.57256234
0.13669251 0.19534074 0.57127792
0.14035691 0.19535033 0.57141155
0.14445192 0.19594364 0.57325417
0.148908 0.19698538 0.57641089
0.15331542 0.19791406 0.57923925
0.15722549 0.19817215 0.58010668
0.16138314 0.19872335 0.5818336
0.16482805 0.19839196 0.58097762
0.16781861 0.19754045 0.57859856
0.17019868 0.1960227 0.57426751
0.17477801 0.19704862 0.57738864
0.17935504 0.19802973 0.58038032
0.18305133 0.19801843 0.58046454
0.18596642 0.19717942 0.57812238
0.18946673 0.19698164 0.57765996
0.19335742 0.19718963 0.57838762
0.19624144 0.19638254 0.57613772
0.19975507 0.19622374 0.57578921
0.20274583 0.19556646 0.57397747
0.20592101 0.19510728 0.57274652
0.20963238 0.19516346 0.57302773
0.21467295 0.19643408 0.57687551
0.21848588 0.19655761 0.57735491
0.22228287 0.19666302 0.5777809
0.22534902 0.19612904 0.57632774
0.22988364 0.19686989 0.57862014
0.23443405 0.19760081 0.58088368
0.23885007 0.1981976 0.582753
0.24189551 0.19765632 0.58127546
0.24260405 0.19525069 0.57431263
0.2432867 0.19289604 0.56749606
0.24579996 0.19204049 0.5650872
0.25195569 0.1940145 0.57100421
0.25795788 0.19581607 0.57641459
0.26376003 0.19741751 0.58123684
0.26883447 0.19843769 0.58434802
0.27298093 0.19875455 0.58538759
0.27546662 0.19787005 0.58288735
0.27568448 0.1954017 0.57571828
0.27687013 0.19367497 0.57073075
0.27972576 0.19314605 0.56927061
0.27891034 0.19012816 0.56047148
0.27920556 0.18793398 0.55409652
0.2848095 0.18932325 0.558285
0.29763234 0.19304854 0.56945443
0.30092701 0.19284697 0.56894976
0.30480865 0.19302198 0.56955427
0.30979145 0.19388214 0.5721795
0.31564045 0.19525832 0.57632703
0.32170841 0.19673702 0.58077669
0.32253051 0.19501062 0.57576305
0.32329744 0.19328986 0.57076299
0.32673088 0.19318381 0.57052851
0.33179125 0.19403163 0.57310969
0.33060753 0.19124907 0.56496549
0.33273256 0.19041973 0.56258804
0.33625254 0.19039784 0.56259435
0.34139076 0.1912832 0.5652799
0.34100217 0.18908565 0.55885279
0.34342414 0.18847573 0.55711526
0.35143593 0.1909149 0.56438935
0.35702708 0.19200331 0.56766993
0.36160156 0.19252883 0.56928492
0.36451384 0.19216777 0.56827682
0.3718425 0.19411935 0.5741064
-0.4142094 0.19470322 0.5880428
-0.31114525 0.19056728 0.57376313
-0.31415287 0.19467895 0.58604771
-0.31058103 0.19476295 0.58620381
-0.30698767 0.19483538 0.58632344
-0.30604547 0.19661286 0.59157151
-0.29973444 0.19494273 0.58644456
-0.29085934 0.19154216 0.5761131
-0.26714841 0.19285575 0.57930672
-0.26299739 0.19250575 0.57814187
-0.26051518 0.19338471 0.58066648
-0.25906846 0.1950687 0.58560544
-0.25597662 0.19554509 0.58691674
-0.24904597 0.1930598 0.57933897
-0.24618554 0.19370268 0.58114827
-0.24502163 0.19572039 0.58707964
-0.23978409 0.19449635 0.58328587
-0.233119 0.19205788 0.5758515
-0.22939727 0.1920054 0.57557178
-0.22890379 0.19469713 0.583516
-0.22371629 0.19341938 0.57956195
-0.22024314 0.19360597 0.57999575
-0.21506053 0.19227076 0.57587081
-0.21117856 0.19207235 0.57515138
-0.2079768 0.19249666 0.57629603
-0.20608145 0.19416723 0.58117008
-0.20255646 0.19433555 0.58154631
-0.19904053 0.19451913 0.58196783
-0.19520362 0.19439021 0.58145428
-0.19148181 0.19437326 0.58127588
-0.18622665 0.19276865 0.57635057
-0.18277994 0.19300918 0.57694322
-0.1785696 0.19243692 0.57510668
-0.17616571 0.19382833 0.57913852
-0.16275556 0.19547543 0.58355564
-0.15981941 0.1964477 0.58633333
-0.15631644 0.19675341 0.58712178
-0.1522572 0.19635697 0.58581609
-0.14758742 0.19513346 0.58204508
-0.14382757 0.19508106 0.58176911
-0.13956609 0.19432764 0.57940453
-0.13618413 0.19479126 0.5806703
-0.13329434 0.19600484 0.58417219
-0.13010736 0.19683909 0.58654392
-0.12573549 0.19587718 0.58356535
-0.12178341 0.19553056 0.58242238
-0.11856921 0.19638443 0.58485699
-0.114998 0.1966836 0.58564103
-0.11078899 0.19587556 0.5831306
-0.10627394 0.19445136 0.57878929
-0.10241704 0.19417213 0.57785928
-0.098906644 0.19455378 0.57889825
-0.095378064 0.19492824 0.57991815
-0.092070781 0.19580401 0.58243126
-0.088507071 0.19618565 0.58347678
-0.084988452 0.19670561 0.58493596
-0.081324458 0.19692187 0.5854947
-0.077684954 0.19722152 0.58630401
-0.073571533 0.19628754 0.58344924
-0.06958694 0.19561578 0.58137774
-0.0661107 0.19637816 0.58357167
-0.062667251 0.19733571 0.58634824
-0.058818564 0.19705836 0.58545858
-0.054633245 0.19553855 0.5808816
-0.050540816 0.1941531 0.57670796
-0.047069505 0.19512354 0.57953596
-0.043458223 0.19563095 0.58099174
-0.039690409 0.19546323 0.58044606
-0.035845637 0.19484279 0.57855982
-0.032181747 0.19517606 0.57950926
-0.028347578 0.19442914 0.57725519
-0.024604363 0.19417547 0.57646954
-0.020864133 0.19385999 0.5755043
-0.017261855 0.19496723 0.57876623
-0.013560223 0.19525318 0.5795939
-0.0098572951 0.19573094 0.58099473
-0.006103538 0.19516802 0.57931024
-0.0023812926 0.19543017 0.58007884
0.001344652 0.19477367 0.57812458
0.0050600455 0.19467443 0.57782823
0.0087484652 0.19406036 0.57600766
0.012446481 0.19396085 0.57571834
0.016215729 0.1947623 0.57810712
0.019965401 0.19507343 0.57904428
0.023565104 0.1940517 0.576029
0.027219238 0.19369483 0.57499105
0.0307268 0.19250505 0.57148397
0.03439419 0.1924638 0.57139015
0.038048871 0.19236635 0.57113308
0.041967452 0.19350283 0.5745433
0.045411598 0.19244494 0.57144183
0.048855141 0.19154312 0.56880677
0.052516978 0.1915632 0.56891274
0.056767877 0.19358957 0.57498103
0.060286701 0.19302441 0.57335591
0.063782789 0.19245581 0.57172364
0.067207202 0.19174477 0.56967109
0.071046017 0.19222851 0.57117134
0.074774191 0.19238022 0.57168829
0.079097256 0.19397672 0.57650232
0.082812153 0.19400577 0.57666153
0.086677924 0.19437075 0.57782221
0.090216376 0.19400208 0.57680476
0.09363915 0.1934236 0.57516587
0.096710086 0.19218996 0.57158065
0.099941306 0.19135346 0.56917822
0.10451372 0.1930535 0.57432353
0.10857268 0.19372174 0.57640278
0.11269224 0.19445065 0.57866549
0.11601623 0.19380422 0.57683766
0.119335 0.1931894 0.57510531
0.1226723 0.19264068 0.57357109
0.12678854 0.19331163 0.57567042
0.12998569 0.19258308 0.57360393
0.13320823 0.19193129 0.57176697
0.13607669 0.190818 0.56855589
0.13983966 0.19098458 0.56915915
0.14453229 0.19238016 0.57342744
0.14912094 0.19357184 0.57709062
0.15301421 0.19382514 0.57795846
0.1558544 0.19276419 0.57490796
0.16030894 0.19370285 0.57782221
0.16358726 0.19321021 0.57646793
0.16721004 0.19313723 0.57636642
0.17082584 0.19305962 0.5762518
0.17636879 0.19511741 0.5825128
0.18035796 0.19540691 0.58349657
0.18341635 0.19469675 0.58149576
0.186599 0.19414417 0.57996505
0.19064413 0.19449316 0.58112776
0.19480549 0.19494517 0.58259916
0.19683188 0.19328399 0.57775444
0.19952774 0.19232927 0.57501996
0.2028341 0.19198701 0.57411575
0.20643078 0.1919269 0.57405484
0.20952906 0.19141372 0.57263833
0.21362306 0.19181225 0.57394904
0.21803141 0.19247498 0.57605058
0.22226243 0.19296198 0.57762641
0.22584243 0.19287719 0.57749039
0.23214334 0.19508177 0.58420968
0.23542766 0.19472191 0.58324981
0.23844793 0.19415833 0.58167833
0.24074969 0.19303595 0.57843113
0.24199833 0.1911158 0.57279068
0.24355909 0.18949556 0.56804627
0.24780948 0.18998481 0.56962365
0.25504446 0.19271523 0.57792169
0.25994155 0.19362679 0.58076632
0.26333985 0.1934121 0.58023214
0.26623827 0.19284137 0.57862824
0.26967794 0.192673 0.57823002
0.27281374 0.19229503 0.57720131
0.27334204 0.19011369 0.57075667
0.27333549 0.18762231 0.56337762
0.27449146 0.18598306 0.55855364
0.27807626 0.18601038 0.55873257
0.27879706 0.18414544 0.55322528
0.28067553 0.18308201 0.55012316
0.2856414 0.18403402 0.55307537
0.29252639 0.18618445 0.55962932
0.30005491 0.18868811 0.56724578
0.30516669 0.18963082 0.57016975
0.30857858 0.1895076 0.56988734
0.31523311 0.19135568 0.57553238
0.32235554 0.1934424 0.58189529
0.32252586 0.19135727 0.57570714
0.31875235 0.18700504 0.56269383
0.32035089 0.18586594 0.55934471
0.32717595 0.18775107 0.56509537
0.33302322 0.18904045 0.56905252
0.33702433 0.18926556 0.56980503
0.33943215 0.18860072 0.56787616
0.33919322 0.1864946 0.56160498
0.33578467 0.18270758 0.55026788
0.3400256 0.18311784 0.5515691
0.34814197 0.18558575 0.55906737
0.35432276 0.18698265 0.56333899
0.35774782 0.18691207 0.56318808
0.35963675 0.18604825 0.56064498
0.36340174 0.18616246 0.56104708
-0.31377017 0.18633538 0.57197583
-0.30939099 0.18587655 0.57047534
-0.312112 0.18972303 0.58218479
-0.31089163 0.19123693 0.58673203
-0.30974108 0.19283099 0.59152198
-0.30432001 0.19177298 0.58817446
-0.29744068 0.18975854 0.58189356
-0.2911751 0.18809018 0.57667428
-0.28712207 0.18782692 0.57576251
-0.2670719 0.18911989 0.5790624
-0.26146296 0.18772891 0.57468885
-0.25804004 0.18789046 0.57506746
-0.25616425 0.18919945 0.57895601
-0.25527164 0.19128338 0.58521247
-0.2497184 0.18988501 0.58081377
-0.24255057 0.18719876 0.57247716
-0.23999369 0.18804373 0.57493973
-0.23808818 0.18943319 0.57906467
-0.23240308 0.18781194 0.57398576
-0.22762275 0.186882 0.57102048
-0.22732073 0.1896584 0.57937789
-0.22367524 0.18969089 0.57935059
-0.22167949 0.19114715 0.5836702
-0.21575911 0.18921141 0.57763201
-0.21188751 0.18903656 0.57697052
-0.2060823 0.18710019 0.5709337
-0.20548566 0.18990812 0.57937312
-0.20217288 0.19026278 0.58032566
-0.1992435 0.1909983 0.58243912
-0.19479965 0.19028254 0.58012676
-0.19152619 0.19070464 0.58128375
-0.18687515 0.18974477 0.57822889
-0.18268573 0.18922463 0.5765152
-0.17917201 0.18939751 0.5769136
-0.17461096 0.18844748 0.57389235
-0.16160895 0.19038984 0.57929862
-0.15993854 0.19283789 0.58662021
-0.15715088 0.19402428 0.59010243
-0.15130369 0.19139884 0.58199346
-0.14681205 0.19039926 0.57883185
-0.14349164 0.19090635 0.58025211
-0.14063291 0.19207112 0.58367187
-0.13682419 0.19196682 0.58323574
-0.13373452 0.192894 0.58593452
-0.12961204 0.19234215 0.58414215
-0.12591679 0.1924106 0.58423567
-0.12184056 0.19188346 0.58252281
-0.11865193 0.19276525 0.58508903
-0.1144608 0.19202295 0.58272773
-0.10994343 0.19066505 0.57850164
-0.10539703 0.18916045 0.57383424
-0.10175429 0.18922777 0.57393843
-0.098282717 0.18963063 0.57506251
-0.095044628 0.19053318 0.57770389
-0.092024006 0.19196287 0.58194494
-0.088343881 0.1920798 0.58220828
-0.084884174 0.1927077 0.58402306
-0.0809744 0.19232492 0.58277732
-0.077433683 0.19282432 0.58420795
-0.073374353 0.19201766 0.58168471
-0.069607489 0.19193116 0.58134657
-0.066126041 0.19266674 0.58350134
-0.062388744 0.19270077 0.58353448
-0.05860306 0.19258039 0.58310366
-0.054485682 0.19127946 0.57910198
-0.050708048 0.19106823 0.57840347
-0.047305424 0.19234873 0.58222407
-0.043608271 0.19254911 0.58277828
-0.039869327 0.19258565 0.58284032
-0.035901226 0.19140841 0.57923287
-0.032311551 0.19221015 0.58161807
-0.028483868 0.19162101 0.57979828
-0.024690369 0.19111951 0.57824761
-0.0208485 0.18999976 0.57483065
-0.017239768 0.19098048 0.57777238
-0.013587027 0.19187944 0.58047032
-0.009861852 0.19204998 0.58096874
-0.0061444785 0.19267453 0.58284432
-0.0023902333 0.19229129 0.58167523
0.0013415898 0.1908358 0.57726675
0.0050081406 0.18905371 0.57187432
0.0086822789 0.18894568 0.57154977
0.012399276 0.18955684 0.57340455
0.016112264 0.18984024 0.57427204
0.01988256 0.19056711 0.5764848
0.023514833 0.18995044 0.57463717
0.027163772 0.18961762 0.57365209
0.030808117 0.1893362 0.57282615
0.034540974 0.18960069 0.57365572
0.038326174 0.1900738 0.57512027
0.042126328 0.19053128 0.57654148
0.045564223 0.18940891 0.57318574
0.04888086 0.18798828 0.56893039
0.052480776 0.18777917 0.56834465
0.056371704 0.18857083 0.5707916
0.059835549 0.18792447 0.56888932
0.063600816 0.1882448 0.56991667
0.067240499 0.1881789 0.56977803
0.07139916 0.18949732 0.57383448
0.075221702 0.18983805 0.57493418
0.079137109 0.19037044 0.57661766
0.08234974 0.18924026 0.57326841
0.086093664 0.18937567 0.57375532
0.090064675 0.18997905 0.57566327
0.093717322 0.18988995 0.57547587
0.096710987 0.18852313 0.57141834
0.099920504 0.18766171 0.56889439
0.10394926 0.18834557 0.57105708
0.108156 0.18929444 0.5740267
0.11154646 0.18879934 0.57262003
0.1152937 0.18892059 0.57308471
0.11876652 0.18859871 0.57220721
0.12228794 0.18837109 0.57161742
0.12674862 0.18956158 0.57533342
0.13113399 0.19057547 0.57851642
0.13385423 0.1891803 0.57438815
0.13568678 0.18663895 0.56677902
0.13997959 0.18752606 0.56958199
0.1444227 0.18856449 0.57284725
0.14998706 0.19097933 0.58029717
0.15281716 0.18988018 0.57707179
0.15659982 0.18998864 0.57751709
0.15970759 0.18929237 0.57551694
0.16296941 0.18880604 0.57415533
0.16639942 0.18853186 0.57343918
0.171875 0.19053727 0.57965863
0.17601202 0.1910056 0.58120394
0.17967589 0.19095187 0.58116168
0.18245274 0.18997677 0.57831508
0.18641843 0.1902539 0.57928032
0.18988654 0.19002238 0.57869714
0.19417568 0.19060574 0.58059621
0.19659942 0.1893706 0.57695568
0.20039994 0.18948275 0.57741922
0.20463939 0.18999851 0.57911307
0.20861737 0.19025762 0.58002514
0.21080799 0.18890621 0.5760262
0.21305339 0.18764938 0.5723139
0.21577743 0.18684945 0.56999344
0.22103731 0.18823569 0.57434189
0.22605962 0.18937781 0.5779466
0.23075269 0.19021212 0.5806126
0.2338412 0.1897184 0.57922441
0.2368543 0.18917987 0.57769817
0.23820138 0.18734756 0.57221884
0.24062182 0.18640207 0.56944543
0.24370369 0.18598948 0.56829846
0.24812944 0.18659972 0.57027596
0.25495628 0.18897212 0.57763964
0.25890619 0.18917519 0.57837266
0.26346731 0.18981303 0.58043444
0.26444712 0.18788882 0.57465965
0.26826534 0.18800633 0.57512724
0.26903629 0.18601389 0.56913799
0.27102497 0.18490514 0.56584954
0.27186587 0.18305269 0.56028211
0.27611896 0.18351598 0.56180054
0.27895901 0.18304035 0.56044334
0.28216648 0.18281488 0.55985028
0.28138781 0.18004459 0.55146086
0.28250456 0.17854021 0.54694539
0.29007265 0.18110023 0.55487972
0.29788271 0.18374825 0.56308484
0.30376735 0.18515997 0.5675019
0.30633268 0.18453917 0.56568819
0.31346655 0.18665312 0.57225668
0.31997091 0.18834831 0.57754141
0.32120383 0.1869373 0.57329994
0.31983227 0.18405908 0.56455517
0.32179034 0.18313949 0.56181467
0.32655671 0.18382096 0.56398386
0.33077055 0.18418007 0.56516272
0.33709064 0.18569182 0.56987768
0.33780324 0.18411537 0.56511319
0.33966756 0.18319316 0.56235415
0.33822232 0.18052369 0.55422831
0.34535274 0.18243927 0.56017697
0.34936604 0.18268609 0.56100094
0.35443515 0.18347454 0.5634867
0.35705492 0.18299207 0.56206757
0.35691124 0.18111685 0.55636805
0.35683116 0.17931025 0.55087626
