ply
format ascii 1.0
comment PCL generated
element vertex 1117
property float x
property float y
property float z
property uchar red
property uchar green
property uchar blue
element camera 0
property float view_px
property float view_py
property float view_pz
property float x_axisx
property float x_axisy
property float x_axisz
property float y_axisx
property float y_axisy
property float y_axisz
property float z_axisx
property float z_axisy
property float z_axisz
property float focal
property float scalex
property float scaley
property float centerx
property float centery
property int viewportx
property int viewporty
property float k1
property float k2
end_header
-0.12806188 0.093421824 0.66916752 255 0 0
-0.12330539 0.09309388 0.66661787 255 0 0
-0.11876326 0.092909679 0.66510296 255 0 0
-0.11426947 0.092750639 0.66377395 255 0 0
-0.11148605 0.094021402 0.67268008 255 0 0
-0.10762803 0.094452068 0.67557758 255 0 0
-0.1025629 0.093814798 0.67084211 255 0 0
-0.096701421 0.092360362 0.66027302 255 0 0
-0.090836331 0.090767689 0.6487267 255 0 0
-0.087066427 0.091215484 0.65177166 255 0 0
-0.08404202 0.092529446 0.66100854 189 131 162
-0.080940887 0.09389513 0.67061687 255 0 0
-0.075774178 0.092883423 0.66325122 255 0 0
-0.071403116 0.092783816 0.66240668 255 0 0
-0.067527153 0.0933557 0.66636205 255 0 0
-0.063572004 0.093888514 0.67004383 255 0 0
-0.059362173 0.094095498 0.67140633 255 0 0
-0.054462105 0.093154386 0.66458464 255 0 0
-0.049716886 0.092339031 0.65866917 255 0 0
-0.045307219 0.092052065 0.65653116 255 0 0
-0.041149758 0.092270941 0.6580081 255 0 0
-0.036840539 0.09216059 0.65714461 189 131 162
-0.032847762 0.092916287 0.66246355 189 131 162
-0.028497566 0.092736073 0.66111654 189 131 162
-0.024135765 0.092447408 0.65900445 189 131 162
-0.019549536 0.090989843 0.64856857 255 0 0
-0.01558588 0.092425033 0.65875959 189 131 162
-0.011394445 0.093083285 0.6634199 189 131 162
-0.0070471657 0.092494801 0.6592024 189 131 162
-0.0027304378 0.091111176 0.64932609 189 131 162
0.0014810081 0.091117576 0.64936411 189 131 162
0.0057388032 0.091855623 0.65462404 189 131 162
0.010041502 0.092378557 0.65835869 189 131 162
0.014282206 0.092188828 0.65702212 189 131 162
0.018379636 0.091373578 0.65123522 189 131 162
0.022531481 0.091082595 0.64919215 189 131 162
0.026884073 0.091566622 0.65268058 189 131 162
0.03102925 0.091308251 0.65088499 189 131 162
0.035069901 0.090840682 0.64760512 189 131 162
0.039131772 0.09052185 0.6453926 189 131 162
0.043366626 0.090625815 0.64620155 189 131 162
0.047245272 0.090032324 0.64204413 189 131 162
0.051224057 0.08971002 0.63982707 189 131 162
0.055185381 0.089407429 0.63775676 189 131 162
0.058840584 0.088685296 0.63269973 189 131 162
0.075312167 0.088762775 0.63369417 255 0 0
0.078927785 0.088215098 0.62990952 255 0 0
0.082824193 0.088019371 0.6286431 255 0 0
0.086676709 0.087797284 0.62719333 255 0 0
0.09094239 0.087994568 0.6287452 255 0 0
0.095616221 0.088552684 0.632882 255 0 0
0.09982869 0.08865495 0.63376749 255 0 0
0.10445333 0.08910048 0.63711298 255 0 0
0.10877385 0.089262344 0.63843638 255 0 0
0.11271756 0.089114204 0.63754737 255 0 0
0.11588009 0.088380463 0.63247192 255 0 0
0.11953171 0.088056833 0.63033378 255 0 0
0.12341638 0.087920316 0.62953842 255 0 0
0.12658617 0.08729928 0.62527627 255 0 0
0.13000923 0.086885683 0.62250173 255 0 0
0.13416921 0.086974397 0.62332898 255 0 0
0.13889462 0.087413542 0.62667263 255 0 0
0.14345399 0.087726086 0.62911367 255 0 0
0.14615199 0.086914226 0.62349349 255 0 0
0.14913253 0.086309209 0.61935669 255 0 0
0.15261266 0.086017147 0.61746645 255 0 0
0.15740386 0.086459897 0.62085396 255 0 0
0.16124292 0.086370431 0.62042326 255 0 0
0.16368204 0.08555337 0.614766 255 0 0
0.16756804 0.085513137 0.61469078 255 0 0
0.17337489 0.086432137 0.6215151 255 0 0
0.17923675 0.087336257 0.62823874 255 0 0
0.18245044 0.086938359 0.62559956 255 0 0
0.18433659 0.085938536 0.61862689 255 0 0
0.18758684 0.085603349 0.61643636 255 0 0
0.1917078 0.08567097 0.61714703 255 0 0
0.19655237 0.086052448 0.62012082 255 0 0
0.20004655 0.085839123 0.61880952 255 0 0
0.20336153 0.085558549 0.6170128 255 0 0
0.20725672 0.085527986 0.61701876 255 0 0
0.21196136 0.085826144 0.61939734 255 0 0
0.21435177 0.085193343 0.61505669 255 0 0
0.21780483 0.084998004 0.61387205 255 0 0
0.22453535 0.08606571 0.62181193 255 0 0
0.22853602 0.086067855 0.62205589 255 0 0
0.23178685 0.085792206 0.62029105 255 0 0
0.23665898 0.086115688 0.62285769 255 0 0
0.23973252 0.085784651 0.62068981 255 0 0
0.24071822 0.084729396 0.61327779 255 0 0
0.24272066 0.084060065 0.6086536 255 0 0
0.24995458 0.085194871 0.61709303 255 0 0
0.25187948 0.084512837 0.61237276 255 0 0
0.25856379 0.085423999 0.61919618 255 0 0
0.26258603 0.085441269 0.61954159 255 0 0
0.26694617 0.085566208 0.62066662 255 0 0
0.26866555 0.084853292 0.61571133 255 0 0
0.27435955 0.085398018 0.6198799 255 0 0
0.27954128 0.085769907 0.62279463 255 0 0
0.28462946 0.086102888 0.62542701 255 0 0
0.28793439 0.085894555 0.62412602 255 0 0
0.28493071 0.082703933 0.6013459 255 0 0
0.28777662 0.082417361 0.59946054 255 0 0
0.29342434 0.082930081 0.60338742 255 0 0
0.29784006 0.083085686 0.6047157 255 0 0
0.29891908 0.082318321 0.59932286 255 0 0
0.32000238 0.083827168 0.61106938 255 0 0
-0.32483792 0.04113948 0.29037449 255 0 0
-0.32669938 0.041610826 0.29370418 255 0 0
-0.31868434 0.040822417 0.28814164 255 0 0
-0.31303877 0.04033019 0.2846691 255 0 0
-0.31279662 0.040532418 0.28609797 255 0 0
-0.32135618 0.041884184 0.29564035 255 0 0
-0.32531658 0.042648833 0.30103812 255 0 0
-0.32188082 0.042447142 0.29961443 255 0 0
-0.31924859 0.042349648 0.29892564 255 0 0
-0.31315899 0.041789602 0.2949715 255 0 0
-0.31219697 0.041911192 0.2958281 255 0 0
-0.31610343 0.042691752 0.30133542 255 0 0
-0.32546636 0.044223197 0.31214204 255 0 0
-0.32776651 0.044807807 0.31626487 255 0 0
-0.32690111 0.044964187 0.31736445 255 0 0
-0.32509494 0.044992287 0.31755793 255 0 0
-0.32785621 0.045656793 0.32224241 255 0 0
-0.32967481 0.046197489 0.32605225 255 0 0
-0.32760072 0.046196096 0.32603532 255 0 0
-0.32981446 0.046803121 0.33031166 255 0 0
-0.33005345 0.047135871 0.33265132 255 0 0
-0.33368263 0.047960144 0.33845881 255 0 0
-0.36107957 0.053619117 0.37832725 255 0 0
-0.38548857 0.05840579 0.41204455 255 0 0
-0.40550575 0.062281348 0.43934 255 0 0
-0.41121078 0.063593708 0.44857201 255 0 0
-0.40339789 0.062819205 0.44308251 255 0 0
-0.39607728 0.062111028 0.43806025 255 0 0
-0.39493862 0.062369108 0.43985158 255 0 0
-0.39554977 0.062909126 0.44362971 255 0 0
-0.40065554 0.064176776 0.45253679 255 0 0
-0.40076664 0.064656869 0.45588809 255 0 0
-0.39740247 0.064579137 0.45530471 255 0 0
-0.39774075 0.065106317 0.45898438 255 0 0
-0.39206034 0.06464877 0.45572045 255 0 0
-0.39219543 0.065150455 0.45921689 255 0 0
-0.20542146 0.088231683 0.60908687 255 0 0
-0.20323662 0.088986561 0.61406761 255 0 0
-0.19978215 0.089204207 0.61533904 255 0 0
-0.19462146 0.088653311 0.61131018 255 0 0
-0.18947372 0.08808554 0.60716867 255 0 0
-0.18516912 0.087893948 0.60562289 255 0 0
-0.18357542 0.089008361 0.61307454 255 0 0
-0.18254901 0.090452589 0.62279254 255 0 0
-0.17938958 0.090880819 0.62551165 255 0 0
-0.1757189 0.091063574 0.6265412 255 0 0
-0.1710861 0.090744406 0.62411928 255 0 0
-0.16756018 0.091010906 0.62572742 255 0 0
-0.16525698 0.091970839 0.63210213 255 0 0
-0.16344658 0.093260244 0.64073801 255 0 0
-0.1604508 0.093922362 0.64506173 255 0 0
-0.15606822 0.093786143 0.64390379 255 0 0
-0.15284723 0.094359353 0.64761835 255 0 0
-0.14931147 0.094764777 0.65018207 255 0 0
-0.14628497 0.09552598 0.65518719 255 0 0
-0.14341244 0.0964358 0.66121113 255 0 0
-0.14011362 0.097105727 0.66559047 255 0 0
-0.136167 0.097354658 0.66708595 255 0 0
-0.13156386 0.097134903 0.66537392 255 0 0
-0.1275011 0.097312555 0.66638821 255 0 0
-0.12321636 0.097327016 0.66628921 255 0 0
-0.11909151 0.097473197 0.66709596 255 0 0
-0.11442421 0.097169466 0.66482884 255 0 0
-0.11090496 0.097854786 0.66933262 255 0 0
-0.1069151 0.098163418 0.6712634 255 0 0
-0.1027494 0.098329656 0.67222488 255 0 0
-0.096791886 0.096719854 0.66105247 255 0 0
-0.091338925 0.095488541 0.65247738 255 0 0
-0.087213367 0.095592633 0.65303475 255 0 0
-0.084101073 0.096874237 0.66163993 255 0 0
-0.080164731 0.097292997 0.66435546 255 0 0
-0.075495444 0.096819058 0.66098136 255 0 0
-0.071072236 0.096622474 0.65950829 255 0 0
-0.067416169 0.097510107 0.66544127 255 0 0
-0.063336782 0.097864635 0.66774118 255 0 0
-0.059184991 0.098150849 0.66958112 255 0 0
-0.054061521 0.096743278 0.6598742 255 0 0
-0.049471281 0.096129932 0.65559375 255 0 0
-0.044755477 0.095134273 0.6487146 255 0 0
-0.040570777 0.095177948 0.64893055 255 0 0
-0.03644409 0.095383361 0.6502564 255 0 0
-0.032564018 0.096372165 0.65692896 255 0 0
-0.02838685 0.096646778 0.65873981 189 131 162
-0.023943527 0.095951863 0.65395015 255 0 0
-0.019623987 0.095560573 0.65123785 255 0 0
-0.015444179 0.095821671 0.6529792 255 0 0
-0.011275547 0.096375406 0.65672189 189 131 162
-0.0069750044 0.095789701 0.65270793 189 131 162
-0.0027223893 0.095071122 0.64779639 189 131 162
0.0014688292 0.094485432 0.64379811 189 131 162
0.0056561446 0.094700128 0.64526105 189 131 162
0.009878858 0.095072366 0.64780504 189 131 162
0.014147177 0.095529988 0.65093845 189 131 162
0.018243756 0.094883658 0.64655715 189 131 162
0.022311181 0.094355218 0.64298612 189 131 162
0.026415069 0.0941227 0.64143908 189 131 162
0.030500403 0.093895987 0.63993859 189 131 162
0.034430474 0.093302488 0.63594514 189 131 162
0.038498849 0.093170285 0.63510269 255 0 0
0.04282064 0.093617372 0.63821632 189 131 162
0.046738353 0.093179733 0.63530552 189 131 162
0.050693698 0.092881635 0.6333524 255 0 0
0.05433619 0.092097618 0.62809169 255 0 0
0.057998877 0.091454446 0.6237967 255 0 0
0.061488524 0.090639688 0.6183365 255 0 0
0.065820694 0.091090329 0.62151456 255 0 0
0.070288569 0.091665708 0.6255511 255 0 0
0.074537434 0.091908038 0.62732202 255 0 0
0.078591585 0.091897346 0.62737226 255 0 0
0.082293898 0.091496252 0.62476254 255 0 0
0.08627592 0.091428891 0.6244368 255 0 0
0.090397745 0.091508836 0.62512255 255 0 0
0.094110258 0.091185056 0.62305534 255 0 0
0.098782584 0.091779388 0.62726742 255 0 0
0.10360649 0.092461839 0.63208884 255 0 0
0.10769572 0.092461444 0.63224834 255 0 0
0.11087385 0.09170723 0.62725669 255 0 0
0.1144649 0.091335498 0.62488377 255 0 0
0.11819189 0.091093652 0.62340271 255 0 0
0.12225392 0.091117203 0.62374175 255 0 0
0.12524627 0.09036722 0.61878818 255 0 0
0.12873432 0.090010032 0.61652595 255 0 0
0.132557 0.089900993 0.61596602 255 0 0
0.13745117 0.090503581 0.62028652 255 0 0
0.14225966 0.091017008 0.62400168 255 0 0
0.14539644 0.090461828 0.62039363 255 0 0
0.14886203 0.090135306 0.6183548 255 0 0
0.15174948 0.089484677 0.61409312 255 0 0
0.15613727 0.089729175 0.61597604 255 0 0
0.15997969 0.089655668 0.61567885 255 0 0
0.16264109 0.088939704 0.61097008 255 0 0
0.16715564 0.089246802 0.61329043 255 0 0
0.17176996 0.08959157 0.61587316 255 0 0
0.17663388 0.090047799 0.61922574 255 0 0
0.18017249 0.089822963 0.61789703 255 0 0
0.18406831 0.089781903 0.61783338 255 0 0
0.18769702 0.089614831 0.61690348 255 0 0
0.19037251 0.089008845 0.61295116 255 0 0
0.19488722 0.089269727 0.61496866 255 0 0
0.19811055 0.088940285 0.61292022 255 0 0
0.20221591 0.089011803 0.61363471 255 0 0
0.20699139 0.089369729 0.6163255 255 0 0
0.21009256 0.089004695 0.61403084 255 0 0
0.2131535 0.088636242 0.61171097 255 0 0
0.21636945 0.088344261 0.60991728 255 0 0
0.22294833 0.089411169 0.61750722 255 0 0
0.22640258 0.0892094 0.61633718 255 0 0
0.23161739 0.089696221 0.6199249 255 0 0
0.23553307 0.089671828 0.61998016 255 0 0
0.23964617 0.089721993 0.62055045 255 0 0
0.24084932 0.088698708 0.61369336 255 0 0
0.24529165 0.08888191 0.61518103 255 0 0
0.25221255 0.089943066 0.62274724 255 0 0
0.25374803 0.089080378 0.61699307 255 0 0
0.25874859 0.089441828 0.61971498 255 0 0
0.273848 0.089184955 0.6187942 255 0 0
0.27837291 0.089365795 0.62026042 255 0 0
0.27917171 0.085944645 0.59711617 255 0 0
0.28243285 0.085775122 0.59613496 255 0 0
0.28930253 0.08669132 0.60269922 255 0 0
0.29338652 0.086759552 0.60336852 255 0 0
0.29701307 0.086692356 0.60309416 255 0 0
0.29796541 0.085856251 0.59746647 255 0 0
0.32111004 0.088014178 0.61323678 255 0 0
-0.34546167 0.045439366 0.30706912 255 0 0
-0.31970081 0.042289019 0.28578341 255 0 0
-0.31370929 0.041732706 0.28202707 255 0 0
-0.30547294 0.040869672 0.27619743 255 0 0
-0.30344847 0.040832587 0.27594906 255 0 0
-0.30458501 0.041222874 0.27858847 255 0 0
-0.30951408 0.042133976 0.28474718 255 0 0
-0.31435099 0.043043122 0.29089227 255 0 0
-0.31615511 0.043545261 0.29428631 255 0 0
-0.31930572 0.044239901 0.29898077 255 0 0
-0.31773821 0.044285212 0.2992864 255 0 0
-0.3164216 0.044366248 0.29983291 255 0 0
-0.31599721 0.044574112 0.30123597 255 0 0
-0.3220419 0.045702539 0.30885974 255 0 0
-0.32663098 0.046636913 0.3151713 255 0 0
-0.32703885 0.046982087 0.31750032 255 0 0
-0.32287791 0.046671115 0.31539455 255 0 0
-0.32081503 0.04666141 0.3153241 255 0 0
-0.32213435 0.047146581 0.31859714 255 0 0
-0.32092959 0.047266126 0.31939867 255 0 0
-0.32262835 0.047817491 0.32311743 255 0 0
-0.32407796 0.04833873 0.32663167 255 0 0
-0.32601163 0.048939299 0.33068103 255 0 0
-0.38527977 0.060966671 0.41182646 255 0 0
-0.38606301 0.061506651 0.41545367 255 0 0
-0.4045037 0.06533438 0.44126171 255 0 0
-0.38556638 0.063147493 0.42644155 255 0 0
-0.38782269 0.063964725 0.43193316 255 0 0
-0.3940042 0.065445527 0.44190335 255 0 0
-0.39685744 0.066390693 0.44825432 255 0 0
-0.39644301 0.066798836 0.4509775 255 0 0
-0.39370036 0.066817746 0.45107126 255 0 0
-0.39083809 0.066816442 0.4510271 255 0 0
-0.38479164 0.066266745 0.44728002 255 0 0
-0.38771415 0.067264915 0.45397875 255 0 0
-0.38474506 0.067248173 0.4538258 255 0 0
-0.20384486 0.09142603 0.60451221 255 0 0
-0.20137848 0.09207169 0.60855591 255 0 0
-0.19807801 0.092353821 0.61019486 255 0 0
-0.19377382 0.092169762 0.60875386 255 0 0
-0.18874127 0.091624364 0.60492891 255 0 0
-0.18554886 0.09196794 0.60697436 255 0 0
-0.18223697 0.092265606 0.60871625 255 0 0
-0.17978744 0.093022361 0.61348546 255 0 0
-0.17722484 0.093753062 0.61808062 255 0 0
-0.17281239 0.093516074 0.61629641 255 0 0
-0.16917637 0.093697779 0.61727327 255 0 0
-0.16620435 0.094264679 0.62078762 255 0 0
-0.16477184 0.095753931 0.63037348 255 0 0
-0.16320279 0.097236879 0.6399132 255 0 0
-0.16210246 0.099082932 0.65183723 255 0 0
-0.15862508 0.099535406 0.65459061 255 0 0
-0.15479191 0.099783011 0.65599805 255 0 0
-0.15111044 0.10014489 0.65815824 255 0 0
-0.14772196 0.10072722 0.6617685 255 0 0
-0.14397173 0.10108998 0.66393739 255 0 0
-0.13963607 0.10105112 0.6634714 255 0 0
-0.13542536 0.10110286 0.66360396 255 0 0
-0.13105178 0.10103219 0.66293722 255 0 0
-0.12704353 0.10124771 0.66415203 255 0 0
-0.123179 0.10159659 0.66624486 255 0 0
-0.11963221 0.10224205 0.67028517 255 0 0
-0.11422427 0.10128542 0.66382772 255 0 0
-0.10970563 0.10107327 0.6622566 255 0 0
-0.10535455 0.10100432 0.6616292 255 0 0
-0.10227466 0.10219955 0.66928625 255 0 0
-0.096669234 0.10086502 0.66038167 255 0 0
-0.091650233 0.10004703 0.6548683 255 0 0
-0.087519847 0.10016663 0.65549856 255 0 0
-0.084206969 0.10128144 0.66264564 255 0 0
-0.079937324 0.10130315 0.66264504 255 0 0
-0.075031646 0.10047535 0.65709513 255 0 0
-0.070258416 0.099735878 0.65213114 255 0 0
-0.066355072 0.10021547 0.65514469 255 0 0
-0.062918499 0.1015134 0.66351247 255 0 0
-0.058671709 0.10159836 0.66395712 255 0 0
-0.048691586 0.098795161 0.64544278 255 0 0
-0.044342186 0.098420292 0.64290673 255 0 0
-0.040103499 0.098238736 0.64164078 255 0 0
-0.036150012 0.098794423 0.64519697 255 0 0
-0.032120828 0.099261358 0.64817977 255 0 0
-0.027857594 0.09903653 0.64665234 255 0 0
-0.023602793 0.098767214 0.64484215 255 0 0
-0.019482121 0.099063933 0.64673465 255 0 0
-0.01543895 0.10002536 0.65297359 255 0 0
-0.011171135 0.099707864 0.65087098 255 0 0
-0.0069373222 0.099492878 0.64944506 255 0 0
-0.0026991302 0.09845528 0.64265722 255 0 0
0.0014530066 0.097532973 0.63662958 255 0 0
0.0055777575 0.097495466 0.63638467 255 0 0
0.0097447215 0.097913451 0.6391204 255 0 0
0.013977 0.098542064 0.64323848 255 0 0
0.017951885 0.097483665 0.63635164 255 0 0
0.021982951 0.097068451 0.63367039 255 0 0
0.026023548 0.096819095 0.63207877 255 0 0
0.030090459 0.096721791 0.63148695 255 0 0
0.03399675 0.096192986 0.62808454 255 0 0
0.038013205 0.096055306 0.62724262 255 0 0
0.042169169 0.09626241 0.62865913 255 0 0
0.046220042 0.096213914 0.62841338 255 0 0
0.050080821 0.095809311 0.62584811 255 0 0
0.053943019 0.09546753 0.62369919 255 0 0
0.057360914 0.094441585 0.61708581 255 0 0
0.060931392 0.093783885 0.61288315 255 0 0
0.065336965 0.094413087 0.61709678 255 0 0
0.06998387 0.095298104 0.62299025 255 0 0
0.074232645 0.095573761 0.62490749 255 0 0
0.077630877 0.094782196 0.61985195 255 0 0
0.081654802 0.094794564 0.62005866 255 0 0
0.085815318 0.094956629 0.62125039 255 0 0
0.089680105 0.09479136 0.62030607 255 0 0
0.09355098 0.094646133 0.61949766 255 0 0
0.097817853 0.094896756 0.62128574 255 0 0
0.10265762 0.095661201 0.62644422 255 0 0
0.10683186 0.095770709 0.62732017 255 0 0
0.11004011 0.095037669 0.62268096 255 0 0
0.1134955 0.094562039 0.61973065 255 0 0
0.11729252 0.094393529 0.61879623 255 0 0
0.12139142 0.094470851 0.61947745 255 0 0
0.12440713 0.093726903 0.61477613 255 0 0
0.12808384 0.093511365 0.61354268 255 0 0
0.1321649 0.093594864 0.61427462 255 0 0
0.13704772 0.09422452 0.61859602 255 0 0
0.14157411 0.094580173 0.62112373 255 0 0
0.14545 0.094493404 0.62074959 255 0 0
0.14902849 0.094223052 0.6191718 255 0 0
0.15202014 0.093605243 0.6153115 255 0 0
0.15531717 0.093201913 0.61286163 255 0 0
0.15934473 0.093245894 0.61335462 255 0 0
0.16297615 0.093061313 0.61234635 255 0 0
0.16714716 0.09318611 0.61337554 255 0 0
0.16958548 0.092361264 0.6081543 255 0 0
0.17077477 0.090908572 0.59879559 255 0 0
0.1820789 0.092736974 0.61126488 255 0 0
0.1867303 0.093093976 0.61383379 255 0 0
0.18929924 0.092419334 0.60960078 255 0 0
0.19222301 0.091941603 0.60666484 255 0 0
0.19458996 0.091221675 0.6021288 255 0 0
0.20015731 0.092000693 0.60748768 255 0 0
0.20604137 0.092892528 0.61359584 255 0 0
0.21040726 0.093079083 0.61504841 255 0 0
0.21306959 0.092518844 0.61156565 255 0 0
0.21707037 0.092549413 0.61198699 255 0 0
0.22150667 0.092761099 0.61360657 255 0 0
0.2239859 0.092159986 0.6098485 255 0 0
0.22751361 0.092003345 0.60902953 255 0 0
0.23077652 0.091746569 0.60754627 255 0 0
0.23384435 0.091421917 0.60561174 255 0 0
0.23785524 0.091470361 0.60614747 255 0 0
0.24430329 0.092439294 0.61278468 255 0 0
0.25109056 0.093503714 0.62005872 255 0 0
0.25297892 0.092738941 0.61520255 255 0 0
0.25409231 0.088986374 0.59092224 255 0 0
-0.28632233 0.039263792 0.25450295 255 0 0
-0.31634471 0.043626312 0.28278425 255 0 0
-0.31159145 0.043215368 0.2801241 255 0 0
-0.30385777 0.042383976 0.27473804 255 0 0
-0.30552393 0.042861715 0.27783751 255 0 0
-0.30805916 0.043467589 0.28176722 255 0 0
-0.3126938 0.044378482 0.28767368 255 0 0
-0.31644845 0.045174401 0.29283455 255 0 0
-0.32107458 0.046104848 0.2988669 255 0 0
-0.31960836 0.04616629 0.29926562 255 0 0
-0.31941643 0.046413612 0.30086878 255 0 0
-0.32029083 0.046819765 0.30350101 255 0 0
-0.31949899 0.04698579 0.30457595 255 0 0
-0.32122433 0.047526233 0.30807751 255 0 0
-0.32693052 0.048665833 0.31546229 255 0 0
-0.32607725 0.04883701 0.31656882 255 0 0
-0.32085386 0.048351742 0.31341961 255 0 0
-0.3149569 0.047758281 0.30956852 255 0 0
-0.31993163 0.048816226 0.31642106 255 0 0
-0.32110262 0.049303435 0.31957337 255 0 0
-0.32421964 0.050097503 0.32471383 255 0 0
-0.32051703 0.049841214 0.32304543 255 0 0
-0.3204895 0.05015678 0.32508272 255 0 0
-0.38919976 0.064643003 0.41883454 255 0 0
-0.39616314 0.06625063 0.42922935 255 0 0
-0.39625737 0.066723742 0.43227205 255 0 0
-0.38639691 0.065515555 0.42442128 255 0 0
-0.38152021 0.065141357 0.42197278 255 0 0
-0.38795567 0.066706948 0.43208799 255 0 0
-0.39558786 0.068501957 0.44368663 255 0 0
-0.39544925 0.06896735 0.44667116 255 0 0
-0.39268616 0.068978414 0.4467116 255 0 0
-0.38730788 0.068526916 0.44375518 255 0 0
-0.38607684 0.0688079 0.44554088 255 0 0
-0.38185444 0.068555966 0.44387433 255 0 0
-0.38653696 0.069910839 0.45260936 255 0 0
-0.38843265 0.070778124 0.45818493 255 0 0
-0.20714273 0.095031112 0.60314584 255 0 0
-0.20258898 0.094710402 0.60089034 255 0 0
-0.19996931 0.095298819 0.60440236 255 0 0
-0.19741872 0.095943913 0.6082713 255 0 0
-0.19367515 0.096023381 0.60855317 255 0 0
-0.18987021 0.096074939 0.60865837 255 0 0
-0.18472087 0.095433913 0.60437828 255 0 0
-0.18192309 0.096006185 0.60778284 255 0 0
-0.17853981 0.096287608 0.60934538 255 0 0
-0.17613995 0.097123757 0.61441696 255 0 0
-0.17235777 0.097218372 0.614797 255 0 0
-0.1697434 0.097991429 0.61946708 255 0 0
-0.16780567 0.099201493 0.62689698 255 0 0
-0.16519536 0.10524718 0.66441631 255 0 0
-0.15932576 0.10420644 0.65762478 255 0 0
-0.15465768 0.10391597 0.65557343 255 0 0
-0.151592 0.10471588 0.66040295 255 0 0
-0.14789592 0.10511373 0.66269749 255 0 0
-0.14323094 0.10482594 0.66067249 255 0 0
-0.13866444 0.1045946 0.65900767 255 0 0
-0.13463946 0.10476977 0.65990812 255 0 0
-0.1298489 0.104341 0.65700877 255 0 0
-0.12623775 0.10486276 0.66009843 255 0 0
-0.12179931 0.10470956 0.658943 255 0 0
-0.11784858 0.10497951 0.66045457 255 0 0
-0.11316159 0.10458901 0.65781587 255 0 0
-0.10923371 0.10489681 0.65957409 255 0 0
-0.10442409 0.10434826 0.65595311 255 0 0
-0.10154673 0.10576565 0.66469389 255 0 0
-0.096534811 0.10498656 0.65963513 255 0 0
-0.092274822 0.10499083 0.65950465 255 0 0
-0.087073147 0.1038719 0.65232617 255 0 0
-0.08297573 0.10402319 0.6531319 255 0 0
-0.078446761 0.10362045 0.65046507 255 0 0
-0.074082546 0.10340179 0.64896071 255 0 0
-0.069660977 0.1030718 0.64676422 255 0 0
-0.065807961 0.10359441 0.64992386 255 0 0
-0.06226613 0.1047115 0.65681762 255 0 0
-0.058109984 0.10488333 0.65778714 255 0 0
-0.048221357 0.10198111 0.63939464 255 0 0
-0.044012114 0.1018214 0.63830799 255 0 0
-0.039956246 0.10201998 0.63947421 255 0 0
-0.035974167 0.10247453 0.64225119 255 0 0
-0.031737447 0.10222757 0.64063829 255 0 0
-0.027507367 0.10193075 0.63872051 255 0 0
-0.023373649 0.10194898 0.63878399 255 0 0
-0.019391103 0.10277621 0.64392322 255 0 0
-0.015289825 0.10325509 0.64688671 255 0 0
-0.01104937 0.10280084 0.6440115 255 0 0
-0.0068310471 0.10212629 0.63976359 255 0 0
-0.0026635327 0.101302 0.63458544 255 0 0
0.0014451441 0.10104086 0.63294226 255 0 0
0.0055530802 0.10115164 0.63363618 255 0 0
0.0096844658 0.10141324 0.63528186 255 0 0
0.013860802 0.10184859 0.63802356 255 0 0
0.017842775 0.10098342 0.63262528 255 0 0
0.021781454 0.10024189 0.62800837 255 0 0
0.025732122 0.099779993 0.62514985 255 0 0
0.029870229 0.10007134 0.62701774 255 0 0
0.033847012 0.099816844 0.62547231 255 0 0
0.037978794 0.10002463 0.62683064 255 0 0
0.042052876 0.1000547 0.62708211 255 0 0
0.046071384 0.099958576 0.62654936 255 0 0
0.049942221 0.099583246 0.62427288 255 0 0
0.053672101 0.099003837 0.62072283 255 0 0
0.057334915 0.098389812 0.616961 255 0 0
0.06105781 0.097951896 0.61430883 255 0 0
0.066161737 0.099647261 0.62504303 255 0 0
0.070510596 0.1000752 0.62783545 255 0 0
0.073872179 0.099131368 0.6220274 255 0 0
0.076951958 0.097926237 0.6145829 255 0 0
0.081064768 0.09808927 0.61572927 255 0 0
0.085458972 0.098561309 0.61882192 255 0 0
0.08981885 0.098953009 0.62141645 255 0 0
0.093498655 0.098593734 0.61930037 255 0 0
0.097466655 0.098555155 0.61920303 255 0 0
0.10175361 0.09882915 0.62107503 255 0 0
0.10555379 0.098627269 0.61996114 255 0 0
0.10892413 0.098052949 0.61650962 255 0 0
0.11216351 0.097405195 0.61259884 255 0 0
0.11623623 0.097500414 0.61336404 255 0 0
0.12074406 0.097942047 0.6163134 255 0 0
0.12429789 0.097606115 0.61437398 255 0 0
0.12848267 0.097770847 0.61558956 255 0 0
0.13258515 0.097864747 0.61636299 255 0 0
0.13735628 0.098432101 0.62012303 255 0 0
0.14041707 0.097776145 0.61617929 255 0 0
0.14388819 0.097433947 0.614214 255 0 0
0.14741813 0.097148634 0.61260897 255 0 0
0.15195911 0.097526893 0.61519134 255 0 0
0.15495367 0.096918449 0.61155164 255 0 0
0.15896465 0.096959986 0.61201447 255 0 0
0.16249499 0.096713215 0.6106593 255 0 0
0.16591716 0.096415065 0.60898066 255 0 0
0.16692185 0.094758131 0.59871733 255 0 0
0.16904286 0.093795225 0.59283513 255 0 0
0.17320924 0.0939845 0.59423524 255 0 0
0.17982024 0.095463209 0.60379308 255 0 0
0.18567824 0.09648788 0.61048585 255 0 0
0.18858397 0.095967554 0.60740548 255 0 0
0.19017187 0.094811134 0.60029638 255 0 0
0.19256231 0.094092712 0.5959571 255 0 0
0.19676657 0.094271153 0.59729773 255 0 0
0.20367986 0.095715664 0.60666424 255 0 0
0.21012376 0.096889324 0.61432022 255 0 0
0.21434437 0.097013235 0.6153236 255 0 0
0.21653154 0.096228823 0.61056429 255 0 0
0.22046025 0.09623234 0.61080259 255 0 0
0.22286879 0.09558361 0.60689926 255 0 0
0.22636765 0.095416576 0.60605258 255 0 0
0.22850424 0.094690524 0.60165262 255 0 0
0.23200655 0.094544977 0.60093874 255 0 0
0.2346172 0.094046615 0.5979802 255 0 0
0.23927522 0.094371639 0.60025603 255 0 0
0.24528651 0.095211491 0.60580814 255 0 0
0.24860366 0.094995573 0.60464317 255 0 0
-0.32861897 0.046903975 0.29209995 255 0 0
-0.31583801 0.045334805 0.28233212 255 0 0
-0.31163839 0.044986531 0.28016713 255 0 0
-0.31062856 0.045097362 0.28086093 255 0 0
-0.30796441 0.044967905 0.28005782 255 0 0
-0.30963123 0.045472991 0.28320616 255 0 0
-0.31307572 0.046246544 0.28802618 255 0 0
-0.32117677 0.047721028 0.29721129 255 0 0
-0.32520312 0.048603885 0.30271122 255 0 0
-0.32356492 0.048645571 0.30297178 255 0 0
-0.32452437 0.049080603 0.30568165 255 0 0
-0.3243998 0.049355924 0.30739617 255 0 0
-0.32122418 0.049167555 0.30622229 255 0 0
-0.3197121 0.049233064 0.30662897 255 0 0
-0.32217729 0.049915548 0.31087771 255 0 0
-0.32276598 0.050313905 0.31335616 255 0 0
-0.31624275 0.049601704 0.30891743 255 0 0
-0.30983621 0.048899028 0.30453753 255 0 0
-0.31270471 0.04966053 0.30927566 255 0 0
-0.32010058 0.051155113 0.31857854 255 0 0
-0.32016784 0.051490031 0.32065845 255 0 0
-0.31639323 0.051207416 0.31889185 255 0 0
-0.31999025 0.052121885 0.32457924 255 0 0
-0.39093894 0.068043426 0.42357481 255 0 0
-0.38720432 0.06785845 0.42240196 255 0 0
-0.38048288 0.067143813 0.41793135 255 0 0
-0.3851923 0.068450451 0.42604059 255 0 0
-0.3978008 0.071694158 0.44617584 255 0 0
-0.39540133 0.071770899 0.44662452 255 0 0
-0.39203116 0.071671255 0.4459742 255 0 0
-0.38867629 0.071572952 0.44533104 255 0 0
-0.38804197 0.071977831 0.44781703 255 0 0
-0.3889097 0.07266929 0.45208424 255 0 0
-0.38827479 0.073088117 0.45465332 255 0 0
-0.3890906 0.0737883 0.45897049 255 0 0
-0.39497092 0.075466625 0.46936917 255 0 0
-0.21342678 0.10002431 0.61037815 255 0 0
-0.20784414 0.099226758 0.60529238 255 0 0
-0.20163265 0.098092794 0.59815866 255 0 0
-0.19975072 0.099061795 0.60384941 255 0 0
-0.1957207 0.098982625 0.603149 255 0 0
-0.19405486 0.10011985 0.60985911 255 0 0
-0.18873523 0.099379815 0.60513383 255 0 0
-0.18560241 0.099784203 0.60737866 255 0 0
-0.18185963 0.099870786 0.60768878 255 0 0
-0.17936273 0.10066018 0.61227471 255 0 0
-0.17607526 0.10103123 0.61431462 255 0 0
-0.17270148 0.10136843 0.61614871 255 0 0
-0.17122658 0.102862 0.62500918 255 0 0
-0.16638781 0.11031152 0.66935951 255 0 0
-0.16002372 0.10891286 0.660653 255 0 0
-0.15490367 0.10830742 0.65676469 255 0 0
-0.15148486 0.1088907 0.66008759 255 0 0
-0.14780731 0.1093161 0.66245449 255 0 0
-0.14347623 0.10926887 0.66195989 255 0 0
-0.13871625 0.10888188 0.65941125 255 0 0
-0.13391404 0.10843602 0.65651125 255 0 0
-0.12927492 0.10809719 0.65426451 255 0 0
-0.12522684 0.10824618 0.65497458 255 0 0
-0.12009638 0.10743708 0.64989287 255 0 0
-0.11555749 0.10711759 0.64777887 255 0 0
-0.11149891 0.10723583 0.64831686 255 0 0
-0.10839394 0.108316 0.65467316 255 0 0
-0.10361833 0.10774645 0.65106225 255 0 0
-0.09974698 0.10810856 0.6530863 255 0 0
-0.095577188 0.10816468 0.65326637 255 0 0
-0.091639102 0.10850013 0.65513819 255 0 0
-0.086707145 0.10763411 0.64976162 255 0 0
-0.082246102 0.10729405 0.64756727 255 0 0
-0.078236826 0.10753822 0.64890504 255 0 0
-0.073859885 0.10727588 0.64719218 255 0 0
-0.069509499 0.10702268 0.64554101 255 0 0
-0.065402009 0.10713479 0.64609981 255 0 0
-0.061863035 0.10825688 0.65275431 255 0 0
-0.057066984 0.10718218 0.6461693 255 0 0
-0.052279402 0.10595453 0.63867068 255 0 0
-0.047882881 0.10537644 0.63509572 255 0 0
-0.04410129 0.10616998 0.63979387 255 0 0
-0.040092919 0.1065253 0.64185709 255 0 0
-0.03605102 0.10686325 0.6438219 255 0 0
-0.03162235 0.10599301 0.638515 255 0 0
-0.027430277 0.10577314 0.63713354 255 0 0
-0.02319162 0.10526384 0.63401592 255 0 0
-0.019211229 0.10595974 0.6381644 255 0 0
-0.015053385 0.10579007 0.63710666 255 0 0
-0.010890627 0.10544465 0.63499784 255 0 0
-0.0066873967 0.10405041 0.62658024 255 0 0
-0.002631105 0.10416762 0.62727177 255 0 0
0.0014378261 0.1045366 0.62948644 255 0 0
0.0055198576 0.10460743 0.62991273 255 0 0
0.0095733404 0.10430642 0.62810713 255 0 0
0.013676966 0.10456786 0.62969559 255 0 0
0.017694639 0.10420259 0.62751687 255 0 0
0.021640237 0.10362824 0.6240859 255 0 0
0.02569001 0.1036547 0.6242801 255 0 0
0.02986218 0.10410029 0.62700558 255 0 0
0.033872865 0.1039433 0.62610847 255 0 0
0.037860684 0.10375688 0.62504083 255 0 0
0.041729264 0.10331097 0.62241638 255 0 0
0.045884103 0.10358954 0.62416315 255 0 0
0.049848493 0.1034276 0.62326223 255 0 0
0.053783149 0.10323249 0.62216771 255 0 0
0.057485674 0.1026498 0.61874294 255 0 0
0.062063742 0.10360431 0.62459046 255 0 0
0.066355594 0.10399319 0.62703538 255 0 0
0.069759615 0.10302574 0.62130773 255 0 0
0.07281407 0.10167536 0.6132741 255 0 0
0.076067351 0.10072759 0.60767204 255 0 0
0.080318905 0.10112964 0.61021811 255 0 0
0.084774867 0.10173908 0.6140222 255 0 0
0.089166075 0.10221948 0.61705405 255 0 0
0.093329899 0.10240894 0.61833566 255 0 0
0.096758887 0.10180939 0.61485779 255 0 0
0.1010078 0.10208559 0.61667323 255 0 0
0.10465381 0.10175434 0.61482376 255 0 0
0.10849915 0.10163382 0.61425149 255 0 0
0.11186463 0.10108793 0.61111158 255 0 0
0.11567716 0.10096923 0.61055744 255 0 0
0.11971864 0.10105139 0.61122167 255 0 0
0.12379304 0.10115495 0.61201954 255 0 0
0.12869175 0.1019046 0.6167317 255 0 0
0.13229637 0.10161505 0.61515892 255 0 0
0.13611989 0.10150541 0.61467791 255 0 0
0.13761741 0.099716343 0.60402662 255 0 0
0.14174718 0.09988036 0.60520619 255 0 0
0.14624411 0.10028718 0.60786062 255 0 0
0.15116994 0.10095897 0.61212605 255 0 0
0.1542764 0.10041223 0.60900599 255 0 0
0.15788132 0.10020877 0.60796893 255 0 0
0.16166791 0.1001275 0.60767466 255 0 0
0.16438955 0.09940587 0.60349458 255 0 0
0.16726218 0.098806612 0.60005659 255 0 0
0.16939086 0.097804643 0.59417123 255 0 0
0.17339832 0.097907588 0.59499794 255 0 0
0.17827453 0.098485827 0.59871602 255 0 0
0.18362094 0.099293664 0.60383385 255 0 0
0.18682183 0.0989317 0.6018399 255 0 0
0.18799189 0.097530663 0.59352189 255 0 0
0.18971086 0.096464299 0.58723617 255 0 0
0.19430639 0.096873499 0.58993244 255 0 0
0.20221297 0.098886065 0.60239822 255 0 0
0.20932046 0.10043942 0.61207455 255 0 0
0.21309212 0.10036419 0.6118297 255 0 0
0.21410689 0.099016562 0.60382533 255 0 0
-0.32147005 0.047683563 0.28574619 255 0 0
-0.32148239 0.04795514 0.28737852 255 0 0
-0.31996569 0.048000425 0.28765434 255 0 0
-0.3154678 0.047596432 0.28523734 255 0 0
-0.31676811 0.048067629 0.28806469 255 0 0
-0.31441531 0.047986727 0.28758305 255 0 0
-0.31643581 0.04857621 0.29111853 255 0 0
-0.32058352 0.049501058 0.29666349 255 0 0
-0.3246901 0.050430406 0.30223504 255 0 0
-0.32244927 0.050379034 0.30192846 255 0 0
-0.32546008 0.051152449 0.30656448 255 0 0
-0.32195261 0.050904505 0.3050788 255 0 0
-0.31968948 0.050851498 0.30476087 255 0 0
-0.31663501 0.050671194 0.30367947 255 0 0
-0.31812021 0.051219601 0.3069647 255 0 0
-0.31707028 0.051364049 0.30782843 255 0 0
-0.31532013 0.051396146 0.30801818 255 0 0
-0.30954981 0.050769277 0.30425817 255 0 0
-0.31337214 0.051717687 0.30993807 255 0 0
-0.3174457 0.052719757 0.31593874 255 0 0
-0.32088313 0.053628184 0.3213774 255 0 0
-0.31662732 0.05325425 0.31913045 255 0 0
-0.32554862 0.055105995 0.33022022 255 0 0
-0.3268992 0.055691872 0.33372325 255 0 0
-0.32480735 0.055695064 0.33373383 255 0 0
-0.38408509 0.069949478 0.41900507 255 0 0
-0.38315454 0.070264749 0.42087203 255 0 0
-0.39124712 0.072250679 0.432744 255 0 0
-0.40044338 0.074469827 0.44601017 255 0 0
-0.39953548 0.074828029 0.44812876 255 0 0
-0.39454043 0.074420407 0.44565961 255 0 0
-0.39067769 0.074221998 0.44444227 255 0 0
-0.38758442 0.074167937 0.44408804 255 0 0
-0.38985488 0.075146958 0.44991767 255 0 0
-0.39174613 0.07606671 0.4553903 255 0 0
-0.39064971 0.076415643 0.45744348 255 0 0
-0.38760912 0.076386608 0.45723251 255 0 0
-0.3964943 0.07872501 0.4711898 255 0 0
-0.39569524 0.079161398 0.47376004 255 0 0
-0.32886705 0.11409437 0.67523468 255 0 0
-0.3030856 0.11250783 0.66477853 255 0 0
-0.2962139 0.11647481 0.68729985 255 0 0
-0.28830335 0.11506913 0.67877418 255 0 0
-0.28332052 0.11480676 0.67699456 255 0 0
-0.28264132 0.11630706 0.68560523 255 0 0
-0.27687299 0.11572728 0.68195111 255 0 0
-0.26877078 0.11413769 0.67234981 255 0 0
-0.26332 0.11364053 0.66918677 255 0 0
-0.214211 0.10431134 0.61272728 255 0 0
-0.20667967 0.10252301 0.60200763 255 0 0
-0.199894 0.10104337 0.59310752 255 0 0
-0.1969433 0.10148232 0.59547156 255 0 0
-0.19453031 0.10222102 0.59959239 255 0 0
-0.19188826 0.10286658 0.60316437 255 0 0
-0.1883786 0.10306388 0.60410696 255 0 0
-0.18681994 0.10435914 0.6114828 255 0 0
-0.18378158 0.10486554 0.61423361 255 0 0
-0.1810113 0.10555027 0.61802769 255 0 0
-0.17725074 0.10567516 0.61854321 255 0 0
-0.17578498 0.10720514 0.62728107 255 0 0
-0.17372672 0.10843691 0.63427013 255 0 0
-0.17078327 0.11467404 0.67007148 255 0 0
-0.16718557 0.11516567 0.67272079 255 0 0
-0.16068111 0.11362768 0.66351897 255 0 0
-0.1555707 0.11301821 0.65974605 255 0 0
-0.15085413 0.11266847 0.65749395 255 0 0
-0.14779629 0.11357298 0.66256315 255 0 0
-0.1446494 0.11446062 0.66753405 255 0 0
-0.13982798 0.11403678 0.66485882 255 0 0
-0.13422921 0.11293192 0.65821964 255 0 0
-0.12958372 0.11258291 0.65599209 255 0 0
-0.12515379 0.11240378 0.65475917 255 0 0
-0.12001932 0.11155702 0.649643 255 0 0
-0.11469056 0.11046164 0.64308649 255 0 0
-0.11112911 0.11104986 0.64633679 255 0 0
-0.10768785 0.11180855 0.65058166 255 0 0
-0.10298048 0.11126071 0.64722866 255 0 0
-0.098778687 0.11123564 0.64692241 255 0 0
-0.094922177 0.11161415 0.64896786 255 0 0
-0.09107098 0.11203396 0.65125746 255 0 0
-0.086324729 0.11133978 0.6470772 255 0 0
-0.081512176 0.11048487 0.64197046 255 0 0
-0.077944241 0.11131553 0.64666313 255 0 0
-0.073698543 0.11121733 0.6459648 255 0 0
-0.069551155 0.11126443 0.64611608 255 0 0
-0.065308519 0.1111552 0.64536595 255 0 0
-0.061286021 0.1114311 0.64685786 255 0 0
-0.056991994 0.11121739 0.64551365 255 0 0
-0.052317146 0.11016776 0.63932532 255 0 0
-0.048097536 0.10997861 0.63813794 255 0 0
-0.044167962 0.11047924 0.64095926 255 0 0
-0.040350568 0.11139315 0.64618391 255 0 0
-0.036109164 0.11121237 0.64506453 255 0 0
-0.031696416 0.11038744 0.64021635 255 0 0
-0.027434181 0.10991722 0.63743287 255 0 0
-0.023295658 0.10986374 0.63707346 255 0 0
-0.019178241 0.10990811 0.63728833 255 0 0
-0.015071867 0.11005744 0.63811862 255 0 0
-0.01083098 0.10896633 0.63176399 255 0 0
-0.0066841259 0.10807097 0.62655193 255 0 0
-0.0026335143 0.10837007 0.62827188 255 0 0
0.0014476787 0.10927961 0.63353759 255 0 0
0.0055363174 0.10899022 0.63185978 255 0 0
0.009548408 0.10807978 0.62658823 255 0 0
0.013631709 0.10827759 0.62774879 255 0 0
0.017691873 0.10824251 0.62756604 255 0 0
0.021733291 0.10812688 0.62692314 255 0 0
0.025762523 0.1079962 0.62619972 255 0 0
0.029884858 0.1082379 0.62764245 255 0 0
0.033851538 0.10792511 0.62587667 255 0 0
0.037655693 0.10721614 0.62181938 255 0 0
0.041596238 0.10699467 0.6205954 255 0 0
0.045663387 0.10710884 0.62132496 255 0 0
0.049708206 0.10715611 0.62167275 255 0 0
0.053449813 0.10659128 0.61847544 255 0 0
0.057350222 0.10639952 0.61744833 255 0 0
0.061506074 0.10667549 0.61914176 255 0 0
0.065645777 0.10689113 0.62049145 255 0 0
0.068761721 0.10551072 0.61258101 255 0 0
0.071787298 0.10414939 0.60478431 255 0 0
0.075759023 0.10423027 0.60536647 255 0 0
0.079972982 0.10461982 0.60774744 255 0 0
0.084495589 0.10535745 0.61215693 255 0 0
0.088806853 0.10577706 0.61472529 255 0 0
0.092590675 0.10555915 0.61359394 255 0 0
0.095643289 0.10455951 0.60792184 255 0 0
0.099973753 0.10498037 0.61051267 255 0 0
0.10362534 0.10468322 0.60893267 255 0 0
0.10797393 0.10508592 0.61142832 255 0 0
0.11112494 0.10433556 0.60721862 255 0 0
0.11500113 0.10429376 0.60713559 255 0 0
0.11874563 0.104139 0.60639864 255 0 0
0.12282746 0.1042803 0.60738939 255 0 0
0.12770562 0.10506777 0.61214894 255 0 0
0.1315328 0.10496905 0.61174989 255 0 0
0.13490465 0.10452305 0.6093294 255 0 0
0.13665643 0.10288242 0.59994417 255 0 0
0.1403968 0.10278782 0.59957427 255 0 0
0.14494336 0.10327248 0.60258681 255 0 0
0.15025531 0.10426275 0.60855472 255 0 0
0.15417252 0.10425922 0.60872644 255 0 0
0.15776908 0.10404422 0.60766524 255 0 0
0.16080129 0.10347626 0.60454339 255 0 0
0.16360362 0.10279052 0.60073298 255 0 0
0.1676466 0.10289773 0.60155749 255 0 0
0.17026433 0.10214491 0.59735447 255 0 0
0.17341609 0.1017384 0.5951761 255 0 0
-0.32248902 0.049640343 0.28665248 255 0 0
-0.31845912 0.049297284 0.28467661 255 0 0
-0.31489876 0.049023408 0.2830998 255 0 0
-0.31814751 0.049812499 0.28766105 255 0 0
-0.31512469 0.049623068 0.28657106 255 0 0
-0.31581241 0.050019119 0.28886184 255 0 0
-0.31714097 0.050521858 0.29176828 255 0 0
-0.31719014 0.050825473 0.29352435 255 0 0
-0.32140765 0.051804513 0.29918075 255 0 0
-0.32373914 0.052489359 0.30313757 255 0 0
-0.3256647 0.053116135 0.30675861 255 0 0
-0.31954888 0.052431006 0.3028025 255 0 0
-0.31476566 0.05195757 0.30006853 255 0 0
-0.31036878 0.051542547 0.29767126 255 0 0
-0.31268942 0.052244816 0.30172607 255 0 0
-0.3128722 0.052596316 0.30375454 255 0 0
-0.31387597 0.053091019 0.30660945 255 0 0
-0.30997878 0.052757729 0.30468187 255 0 0
-0.31128979 0.053312209 0.3078807 255 0 0
-0.31215578 0.053796984 0.31067628 255 0 0
-0.31555218 0.054726731 0.31604069 255 0 0
-0.31791604 0.055488095 0.32043198 255 0 0
-0.32544777 0.057166997 0.33012077 255 0 0
-0.32638842 0.057702314 0.33320484 255 0 0
-0.32196915 0.057290833 0.33082074 255 0 0
-0.39665744 0.077089913 0.44490793 255 0 0
-0.39345634 0.077013955 0.44444257 255 0 0
-0.3875035 0.076394394 0.44083899 255 0 0
-0.38441217 0.076334059 0.4404614 255 0 0
-0.38613641 0.077236012 0.44563475 255 0 0
-0.3902007 0.078622729 0.4536027 255 0 0
-0.38665271 0.078484759 0.45277229 255 0 0
-0.3912538 0.080011204 0.46154165 255 0 0
-0.39748168 0.081895724 0.47237355 255 0 0
-0.39804974 0.082633801 0.47658986 255 0 0
-0.21200831 0.10711788 0.60653466 255 0 0
-0.20439333 0.10519839 0.59545594 255 0 0
-0.19917436 0.10446236 0.59108132 255 0 0
-0.1955492 0.10454977 0.59136748 255 0 0
-0.19379187 0.10565884 0.59743053 255 0 0
-0.190621 0.10602625 0.59929752 255 0 0
-0.18784921 0.10663521 0.60252851 255 0 0
-0.18697703 0.10837056 0.61212009 255 0 0
-0.1837561 0.1087897 0.61427397 255 0 0
-0.18094142 0.10947288 0.61791748 255 0 0
-0.17712902 0.10956932 0.618249 255 0 0
-0.1764445 0.11164925 0.62976956 255 0 0
-0.17086579 0.1190384 0.67054802 255 0 0
-0.16744412 0.1196757 0.673917 255 0 0
-0.1626887 0.11936806 0.67196679 255 0 0
-0.15728909 0.11855785 0.66719216 255 0 0
-0.15165086 0.11751703 0.66112602 255 0 0
-0.14796698 0.11797411 0.66349065 255 0 0
-0.14489052 0.11895685 0.66881233 255 0 0
-0.14071466 0.11906935 0.66924292 255 0 0
-0.13473563 0.11761471 0.66087097 255 0 0
-0.13023591 0.11739837 0.65946347 255 0 0
-0.12662281 0.11799342 0.66261709 255 0 0
-0.1217089 0.1173753 0.65896207 255 0 0
-0.11645677 0.11637429 0.65316415 255 0 0
-0.11199343 0.11611573 0.65153944 255 0 0
-0.10804927 0.11639606 0.65294319 255 0 0
-0.10405715 0.11664519 0.65417588 255 0 0
-0.099445239 0.11619101 0.65146923 255 0 0
-0.095575355 0.11660179 0.65361744 255 0 0
-0.090868145 0.11598157 0.64999187 255 0 0
-0.08666303 0.11597297 0.64979988 255 0 0
-0.082585752 0.11614303 0.65061438 255 0 0
-0.078891315 0.11689844 0.65471226 255 0 0
-0.075013064 0.11745145 0.65768099 255 0 0
-0.07023669 0.11657999 0.65267944 255 0 0
-0.065710932 0.11603948 0.64953828 255 0 0
-0.061773669 0.11653516 0.65220338 255 0 0
-0.057568509 0.11656085 0.65224385 255 0 0
-0.053178497 0.11618656 0.65005279 255 0 0
-0.048690572 0.11551549 0.64620864 255 0 0
-0.044678077 0.11595207 0.64856738 255 0 0
-0.040876459 0.117083 0.65481561 255 0 0
-0.036486641 0.11659569 0.65201968 255 0 0
-0.031915274 0.11532477 0.64484948 255 0 0
-0.027720584 0.11523719 0.64430368 255 0 0
-0.023468243 0.11483638 0.64201349 255 0 0
-0.019361874 0.11513095 0.64361799 255 0 0
-0.015188988 0.11508309 0.64331508 255 0 0
-0.011002735 0.11485951 0.64203691 255 0 0
-0.006791628 0.11394773 0.63691908 255 0 0
-0.0026620191 0.11369914 0.63551539 255 0 0
0.0014525254 0.11367723 0.63538581 255 0 0
0.005547944 0.11329627 0.63325614 255 0 0
0.0095928228 0.11264502 0.62962264 255 0 0
0.013655796 0.11253084 0.62899804 255 0 0
0.017756801 0.1127101 0.63002038 255 0 0
0.02183154 0.11268638 0.629915 255 0 0
0.025905505 0.11266639 0.62983721 255 0 0
0.030070731 0.1129944 0.63171184 255 0 0
0.034094576 0.11277588 0.63053757 255 0 0
0.037831359 0.11175574 0.62488753 255 0 0
0.041764688 0.11145689 0.62327653 255 0 0
0.045786783 0.11142639 0.6231724 255 0 0
0.049809791 0.11140255 0.62311184 255 0 0
0.053782012 0.11127693 0.62248814 255 0 0
0.057555489 0.11078595 0.61982626 255 0 0
0.061415441 0.11051425 0.61839676 255 0 0
0.065326169 0.1103613 0.6176371 255 0 0
0.069214925 0.1101907 0.61678433 255 0 0
0.072553709 0.10921059 0.61140484 255 0 0
0.076094769 0.10862026 0.60821158 255 0 0
0.080076829 0.10868627 0.60869795 255 0 0
0.084302083 0.10906044 0.61091602 255 0 0
0.088460147 0.10931781 0.61248577 255 0 0
0.092170522 0.10902333 0.61096853 255 0 0
0.095289394 0.10808188 0.60582888 255 0 0
0.099418081 0.10831468 0.60727495 255 0 0
0.10325358 0.10822225 0.60690224 255 0 0
0.10744075 0.10849147 0.60856229 255 0 0
0.1109444 0.10807555 0.60638326 255 0 0
0.11463027 0.10785927 0.60532725 255 0 0
0.11810941 0.10746887 0.60329729 255 0 0
0.12164839 0.1071559 0.60170436 255 0 0
0.12570618 0.1073049 0.60270911 255 0 0
0.12944421 0.10718001 0.60217857 255 0 0
0.13381933 0.10757429 0.60456878 255 0 0
0.13674606 0.10681468 0.6004765 255 0 0
0.14058104 0.10678659 0.6004982 255 0 0
0.14471623 0.10698175 0.60177827 255 0 0
0.14894566 0.10723434 0.60338479 255 0 0
-0.32292032 0.051514801 0.28703642 255 0 0
-0.31764203 0.050959308 0.28394675 255 0 0
-0.318876 0.051448207 0.28667605 255 0 0
-0.31959915 0.051859796 0.28897429 255 0 0
-0.31811351 0.051915646 0.28928983 255 0 0
-0.31697339 0.052028846 0.28992456 255 0 0
-0.31850228 0.052584004 0.29302162 255 0 0
-0.31880865 0.05294263 0.29502314 255 0 0
-0.3192285 0.053324442 0.29715335 255 0 0
-0.31882402 0.053572241 0.29853636 255 0 0
-0.32171646 0.054380279 0.30304089 255 0 0
-0.31768829 0.054021176 0.30104083 255 0 0
-0.31426674 0.053761497 0.29959425 255 0 0
-0.31001255 0.053355362 0.29733109 255 0 0
-0.30873513 0.053459715 0.29791209 255 0 0
-0.30831379 0.053714465 0.29933065 255 0 0
-0.3103905 0.054410286 0.30320653 255 0 0
-0.31090501 0.054839175 0.30559421 255 0 0
-0.31243676 0.05545396 0.30901721 255 0 0
-0.31259808 0.05583173 0.31111872 255 0 0
-0.31588149 0.056775402 0.3163729 255 0 0
-0.31748646 0.057427496 0.32000154 255 0 0
-0.32559201 0.059271321 0.3302699 255 0 0
-0.32134059 0.058874927 0.32805452 255 0 0
-0.31788573 0.058620259 0.32662812 255 0 0
-0.3118605 0.057885155 0.32252413 255 0 0
-0.31075141 0.058058869 0.32348323 255 0 0
-0.39362079 0.079845354 0.4446359 255 0 0
-0.38835096 0.079342976 0.44181094 255 0 0
-0.38064301 0.078331538 0.43615064 255 0 0
-0.38206154 0.079197146 0.4409405 255 0 0
-0.38077232 0.079510041 0.44265112 255 0 0
-0.38500795 0.080989726 0.45085555 255 0 0
-0.39000699 0.082653284 0.46008068 255 0 0
-0.39809263 0.085000843 0.47311008 255 0 0
-0.39723873 0.085460693 0.47562975 255 0 0
-0.21862519 0.11240128 0.61453354 255 0 0
-0.21238446 0.11119398 0.60772151 255 0 0
-0.20411468 0.10885929 0.59475434 255 0 0
-0.19875145 0.10801526 0.58993769 255 0 0
-0.19528298 0.10818803 0.59067589 255 0 0
-0.19340608 0.1092667 0.59635782 255 0 0
-0.19067533 0.10989659 0.59958774 255 0 0
-0.18912651 0.11124747 0.60674822 255 0 0
-0.1869116 0.11225492 0.61203194 255 0 0
-0.18344347 0.11253665 0.61335731 255 0 0
-0.18055858 0.11319619 0.6167413 255 0 0
-0.17778304 0.11395526 0.62066597 255 0 0
-0.17281638 0.1247555 0.6783613 255 0 0
-0.16901851 0.1251736 0.68041456 255 0 0
-0.16424669 0.12487327 0.67856491 255 0 0
-0.15916222 0.12431213 0.67530227 255 0 0
-0.15413469 0.12376499 0.67212033 255 0 0
-0.1503353 0.12420069 0.67427909 255 0 0
-0.14723814 0.12525949 0.67982131 255 0 0
-0.14291231 0.1253057 0.67986959 255 0 0
-0.13247116 0.12373506 0.6709587 255 0 0
-0.12739852 0.12301273 0.66685414 255 0 0
-0.12364548 0.12355841 0.6696279 255 0 0
-0.11822901 0.12242097 0.66328502 255 0 0
-0.11442222 0.12292724 0.6658532 255 0 0
-0.10984381 0.12261149 0.66397291 255 0 0
-0.10596859 0.12308668 0.66638052 255 0 0
-0.10178402 0.12322735 0.66698086 255 0 0
-0.097009569 0.12263454 0.66361701 255 0 0
-0.092358239 0.12214953 0.66084296 255 0 0
-0.087998837 0.12202213 0.66000974 255 0 0
-0.084106907 0.12256277 0.66279483 255 0 0
-0.080120467 0.1230161 0.66511232 255 0 0
-0.075841606 0.12304616 0.66514653 255 0 0
-0.07142283 0.122839 0.66390461 255 0 0
-0.066936664 0.12248185 0.66185844 255 0 0
-0.062351495 0.12188219 0.6585089 255 0 0
-0.058316384 0.12234847 0.66092491 255 0 0
-0.053419013 0.12093624 0.65320021 255 0 0
-0.049084663 0.12066535 0.65164787 255 0 0
-0.045039963 0.12112234 0.65403277 255 0 0
-0.040996078 0.12167631 0.65694731 255 0 0
-0.036627445 0.12128293 0.65475351 255 0 0
-0.032366022 0.12118796 0.65417767 255 0 0
-0.028012073 0.12066568 0.65130234 255 0 0
-0.023738267 0.12036472 0.64962876 255 0 0
-0.019474745 0.11999748 0.64760458 255 0 0
-0.015284315 0.12000269 0.64759755 255 0 0
-0.011055119 0.11959254 0.64535594 255 0 0
-0.0068757804 0.11955135 0.64511257 255 0 0
-0.0026968424 0.11940168 0.64429069 255 0 0
0.001468046 0.11895806 0.64188957 255 0 0
0.0055996086 0.11846412 0.63922399 255 0 0
0.009709659 0.11812761 0.63741481 255 0 0
0.01382022 0.11799565 0.63671613 255 0 0
0.017935112 0.11795235 0.63650274 255 0 0
0.022060988 0.11798356 0.63669819 255 0 0
0.02614163 0.11780071 0.63574523 255 0 0
0.03038889 0.11831594 0.63856649 255 0 0
0.034519788 0.11830866 0.63857454 255 0 0
0.038472742 0.11775792 0.6356557 255 0 0
0.042295594 0.11695351 0.63137341 255 0 0
0.04612362 0.11630353 0.62793046 255 0 0
0.050195642 0.11632392 0.62811279 255 0 0
0.05434658 0.11651014 0.62919688 255 0 0
0.058319941 0.11631595 0.62823278 255 0 0
0.062017169 0.11563188 0.62462825 255 0 0
0.06642621 0.11627723 0.6282109 255 0 0
0.070567727 0.11640658 0.62901217 255 0 0
0.077040352 0.1139467 0.61593723 255 0 0
0.080881029 0.11374763 0.61497778 255 0 0
0.085206918 0.11421742 0.61763966 255 0 0
0.089284308 0.11432665 0.61835784 255 0 0
0.092433929 0.11328917 0.61287767 255 0 0
0.095541105 0.11228679 0.6075896 255 0 0
0.099445559 0.11226333 0.60760188 255 0 0
0.10356232 0.11247197 0.60887516 255 0 0
0.10763495 0.11261893 0.60981923 255 0 0
0.11158564 0.11263216 0.61004364 255 0 0
0.11524042 0.1123558 0.60870308 255 0 0
0.11849289 0.1117181 0.60540748 255 0 0
-0.31763533 0.05245015 0.2823391 255 0 0
-0.31855413 0.052899275 0.28476262 255 0 0
-0.31857032 0.053202774 0.28640184 255 0 0
-0.31901506 0.0535817 0.28844678 255 0 0
-0.31861636 0.05382251 0.28974786 255 0 0
-0.31883144 0.05417037 0.29162478 255 0 0
-0.31832576 0.054399114 0.29286003 255 0 0
