ply
format ascii 1.0
comment VCGLIB generated
element vertex 412
property float x
property float y
property float z
property float nx
property float ny
property float nz
property uchar red
property uchar green
property uchar blue
property uchar alpha
element face 0
property list uchar int vertex_indices
end_header
0.02321041 0.01492319 0.2061689 -nan(ind) -nan(ind) -nan(ind) 255 255 80 255 
0.02171645 0.01172023 0.2060288 -nan(ind) -nan(ind) -nan(ind) 255 255 80 255 
0.01890662 0.0082516 0.2059264 -nan(ind) -nan(ind) -nan(ind) 255 255 80 255 
0.01761809 0.005148709 0.2057849 -nan(ind) -nan(ind) -nan(ind) 255 255 80 255 
0.03251773 0.006375685 0.2369205 -nan(ind) -nan(ind) -nan(ind) 255 255 80 255 
0.01822412 0.002458103 0.205592 -nan(ind) -nan(ind) -nan(ind) 255 255 80 255 
0.02184245 0.001469508 0.2334348 -nan(ind) -nan(ind) -nan(ind) 255 255 80 255 
0.02987662 0.0029165 0.2365974 -nan(ind) -nan(ind) -nan(ind) 255 255 80 255 
0.0198516 -3.267825e-05 0.2053701 -nan(ind) -nan(ind) -nan(ind) 255 255 80 255 
0.01491377 -0.002562344 0.2302215 -nan(ind) -nan(ind) -nan(ind) 255 255 80 255 
0.02034998 -0.00167188 0.2331807 -nan(ind) -nan(ind) -nan(ind) 255 255 80 255 
0.03101128 0.0002341419 0.2364428 -nan(ind) -nan(ind) -nan(ind) 255 255 80 255 
0.01392636 -0.004170492 0.2080931 -nan(ind) -nan(ind) -nan(ind) 255 255 80 255 
0.01438859 -0.005286336 0.227264 -nan(ind) -nan(ind) -nan(ind) 255 255 80 255 
0.01647577 -0.005064607 0.2300761 -nan(ind) -nan(ind) -nan(ind) 255 255 80 255 
0.02063966 -0.004452452 0.232994 -nan(ind) -nan(ind) -nan(ind) 255 255 80 255 
0.01139972 -0.007421069 0.2079761 -nan(ind) -nan(ind) -nan(ind) 255 255 80 255 
0.01599911 -0.007606477 0.2243562 -nan(ind) -nan(ind) -nan(ind) 255 255 80 255 
0.01550016 -0.007872626 0.2271 -nan(ind) -nan(ind) -nan(ind) 255 255 80 255 
0.01700807 -0.007771954 0.2298989 -nan(ind) -nan(ind) -nan(ind) 255 255 80 255 
0.01803768 -0.0077601 0.2327023 -nan(ind) -nan(ind) -nan(ind) 255 255 80 255 
0.009321332 -0.01055353 0.2078514 -nan(ind) -nan(ind) -nan(ind) 255 255 80 255 
0.01658884 -0.009423621 0.210426 -nan(ind) -nan(ind) -nan(ind) 255 255 80 255 
0.02499658 -0.008096471 0.2130867 -nan(ind) -nan(ind) -nan(ind) 255 255 80 255 
0.02671033 -0.007969201 0.2158838 -nan(ind) -nan(ind) -nan(ind) 255 255 80 255 
0.01418743 -0.01054825 0.2213998 -nan(ind) -nan(ind) -nan(ind) 255 255 80 255 
0.0146969 -0.01063262 0.2241472 -nan(ind) -nan(ind) -nan(ind) 255 255 80 255 
0.01697797 -0.01040509 0.2269436 -nan(ind) -nan(ind) -nan(ind) 255 255 80 255 
0.01141858 -0.01293292 0.2076305 -nan(ind) -nan(ind) -nan(ind) 255 255 80 255 
0.01586679 -0.01233909 0.2102617 -nan(ind) -nan(ind) -nan(ind) 255 255 80 255 
0.01983845 -0.01183119 0.2129585 -nan(ind) -nan(ind) -nan(ind) 255 255 80 255 
0.01551473 -0.01274952 0.2157428 -nan(ind) -nan(ind) -nan(ind) 255 255 80 255 
0.01454934 -0.01308999 0.2184815 -nan(ind) -nan(ind) -nan(ind) 255 255 80 255 
0.01339823 -0.01346164 0.2212081 -nan(ind) -nan(ind) -nan(ind) 255 255 80 255 
0.0165534 -0.01309953 0.2239894 -nan(ind) -nan(ind) -nan(ind) 255 255 80 255 
0.008678138 -0.01613958 0.2075247 -nan(ind) -nan(ind) -nan(ind) 255 255 80 255 
0.009657621 -0.01614986 0.2101945 -nan(ind) -nan(ind) -nan(ind) 255 255 80 255 
0.009653807 -0.01632372 0.2128903 -nan(ind) -nan(ind) -nan(ind) 255 255 80 255 
0.01036218 -0.01638044 0.2155854 -nan(ind) -nan(ind) -nan(ind) 255 255 80 255 
0.01290148 -0.01613698 0.2182961 -nan(ind) -nan(ind) -nan(ind) 255 255 80 255 
0.018381 -0.01541372 0.2210679 -nan(ind) -nan(ind) -nan(ind) 255 255 80 255 
0.007742405 -0.01884495 0.2047018 -nan(ind) -nan(ind) -nan(ind) 255 255 80 255 
0.004689693 -0.01950466 0.2074523 -nan(ind) -nan(ind) -nan(ind) 255 255 80 255 
0.003444165 -0.0198746 0.2101332 -nan(ind) -nan(ind) -nan(ind) 255 255 80 255 
0.004859477 -0.01982165 0.2127701 -nan(ind) -nan(ind) -nan(ind) 255 255 80 255 
0.008978784 -0.01934235 0.2154149 -nan(ind) -nan(ind) -nan(ind) 255 255 80 255 
0.01741686 -0.01818535 0.2181233 -nan(ind) -nan(ind) -nan(ind) 255 255 80 255 
0.04145038 -0.01477031 0.2239844 -nan(ind) -nan(ind) -nan(ind) 255 255 80 255 
0.04456738 -0.01447129 0.2269644 -nan(ind) -nan(ind) -nan(ind) 255 255 80 255 
0.05204451 -0.01349463 0.2301093 -nan(ind) -nan(ind) -nan(ind) 255 255 80 255 
0.05893824 -0.01261537 0.2333343 -nan(ind) -nan(ind) -nan(ind) 255 255 80 255 
0.008238375 -0.02131258 0.2018454 -nan(ind) -nan(ind) -nan(ind) 255 255 80 255 
0.005264372 -0.0219423 0.204613 -nan(ind) -nan(ind) -nan(ind) 255 255 80 255 
0.001528621 -0.02268614 0.2073633 -nan(ind) -nan(ind) -nan(ind) 255 255 80 255 
-0.0005917251 -0.02318078 0.2100379 -nan(ind) -nan(ind) -nan(ind) 255 255 80 255 
0.002135575 -0.02293701 0.2126302 -nan(ind) -nan(ind) -nan(ind) 255 255 80 255 
0.009674579 -0.02196643 0.2152352 -nan(ind) -nan(ind) -nan(ind) 255 255 80 255 
0.03664929 -0.01825204 0.2208409 -nan(ind) -nan(ind) -nan(ind) 255 255 80 255 
0.039837 -0.01796035 0.223764 -nan(ind) -nan(ind) -nan(ind) 255 255 80 255 
0.03783384 -0.01844953 0.2266224 -nan(ind) -nan(ind) -nan(ind) 255 255 80 255 
0.03911892 -0.0184458 0.2295471 -nan(ind) -nan(ind) -nan(ind) 255 255 80 255 
0.03959394 -0.01856405 0.232463 -nan(ind) -nan(ind) -nan(ind) 255 255 80 255 
0.03883991 -0.0188655 0.2353372 -nan(ind) -nan(ind) -nan(ind) 255 255 80 255 
0.03602248 -0.01947218 0.2381059 -nan(ind) -nan(ind) -nan(ind) 255 255 80 255 
0.02969018 -0.02059585 0.2406504 -nan(ind) -nan(ind) -nan(ind) 255 255 80 255 
0.03326792 -0.02025452 0.2437111 -nan(ind) -nan(ind) -nan(ind) 255 255 80 255 
0.03359354 -0.02039404 0.2466027 -nan(ind) -nan(ind) -nan(ind) 255 255 80 255 
0.03221253 -0.0207839 0.2493745 -nan(ind) -nan(ind) -nan(ind) 255 255 80 255 
0.01030543 -0.02354837 0.1989199 -nan(ind) -nan(ind) -nan(ind) 255 255 80 255 
0.0064601 -0.02428956 0.2017497 -nan(ind) -nan(ind) -nan(ind) 255 255 80 255 
0.003976554 -0.02482795 0.204489 -nan(ind) -nan(ind) -nan(ind) 255 255 80 255 
0.000276953 -0.02554223 0.2072293 -nan(ind) -nan(ind) -nan(ind) 255 255 80 255 
-0.00116092 -0.02592376 0.2098817 -nan(ind) -nan(ind) -nan(ind) 255 255 80 255 
0.001329213 -0.02573319 0.2124697 -nan(ind) -nan(ind) -nan(ind) 255 255 80 255 
0.009597391 -0.02470736 0.2150598 -nan(ind) -nan(ind) -nan(ind) 255 255 80 255 
0.02717137 -0.02234384 0.2177682 -nan(ind) -nan(ind) -nan(ind) 255 255 80 255 
0.03470373 -0.0214425 0.2206344 -nan(ind) -nan(ind) -nan(ind) 255 255 80 255 
0.03563386 -0.02149633 0.2235094 -nan(ind) -nan(ind) -nan(ind) 255 255 80 255 
0.03266349 -0.02210981 0.2263189 -nan(ind) -nan(ind) -nan(ind) 255 255 80 255 
0.03241295 -0.02233247 0.2291652 -nan(ind) -nan(ind) -nan(ind) 255 255 80 255 
0.03184271 -0.02260059 0.2319994 -nan(ind) -nan(ind) -nan(ind) 255 255 80 255 
0.03110337 -0.02289236 0.2348212 -nan(ind) -nan(ind) -nan(ind) 255 255 80 255 
0.02603221 -0.02379667 0.2374327 -nan(ind) -nan(ind) -nan(ind) 255 255 80 255 
0.02322403 -0.02437746 0.2400998 -nan(ind) -nan(ind) -nan(ind) 255 255 80 255 
0.02259129 -0.02464995 0.2428618 -nan(ind) -nan(ind) -nan(ind) 255 255 80 255 
0.02701837 -0.02421248 0.2459531 -nan(ind) -nan(ind) -nan(ind) 255 255 80 255 
0.02686733 -0.02441894 0.2487698 -nan(ind) -nan(ind) -nan(ind) 255 255 80 255 
0.02835992 -0.0243963 0.2517165 -nan(ind) -nan(ind) -nan(ind) 255 255 80 255 
0.0151974 -0.02558255 0.1985376 -nan(ind) -nan(ind) -nan(ind) 255 255 80 255 
0.005162925 -0.02717102 0.2016376 -nan(ind) -nan(ind) -nan(ind) 255 255 80 255 
0.001440674 -0.02786697 0.204407 -nan(ind) -nan(ind) -nan(ind) 255 255 80 255 
-0.001305699 -0.02842362 0.2071056 -nan(ind) -nan(ind) -nan(ind) 255 255 80 255 
-0.0002464056 -0.02844831 0.2096981 -nan(ind) -nan(ind) -nan(ind) 255 255 80 255 
0.003926277 -0.02804198 0.2122676 -nan(ind) -nan(ind) -nan(ind) 255 255 80 255 
0.0123758 -0.02704771 0.2148677 -nan(ind) -nan(ind) -nan(ind) 255 255 80 255 
0.02463192 -0.02553584 0.2175821 -nan(ind) -nan(ind) -nan(ind) 255 255 80 255 
0.03271785 -0.02460799 0.2204299 -nan(ind) -nan(ind) -nan(ind) 255 255 80 255 
0.03295982 -0.02476228 0.2232797 -nan(ind) -nan(ind) -nan(ind) 255 255 80 255 
0.03068551 -0.02526068 0.2260846 -nan(ind) -nan(ind) -nan(ind) 255 255 80 255 
0.02844602 -0.02575251 0.2288626 -nan(ind) -nan(ind) -nan(ind) 255 255 80 255 
0.02742308 -0.02607735 0.2316536 -nan(ind) -nan(ind) -nan(ind) 255 255 80 255 
0.02579758 -0.02648295 0.2344092 -nan(ind) -nan(ind) -nan(ind) 255 255 80 255 
0.023918 -0.02692154 0.2371334 -nan(ind) -nan(ind) -nan(ind) 255 255 80 255 
0.02090442 -0.02751107 0.2397748 -nan(ind) -nan(ind) -nan(ind) 255 255 80 255 
0.02073976 -0.02771623 0.2425473 -nan(ind) -nan(ind) -nan(ind) 255 255 80 255 
0.02270994 -0.02763611 0.2454598 -nan(ind) -nan(ind) -nan(ind) 255 255 80 255 
0.02495036 -0.02752177 0.2484192 -nan(ind) -nan(ind) -nan(ind) 255 255 80 255 
0.02571598 -0.02760521 0.2512926 -nan(ind) -nan(ind) -nan(ind) 255 255 80 255 
0.03004912 -0.02721736 0.254483 -nan(ind) -nan(ind) -nan(ind) 255 255 80 255 
0.01266834 -0.02867347 0.1984901 -nan(ind) -nan(ind) -nan(ind) 255 255 80 255 
0.004839778 -0.02990045 0.2014891 -nan(ind) -nan(ind) -nan(ind) 255 255 80 255 
0.0009757876 -0.03059166 0.2042602 -nan(ind) -nan(ind) -nan(ind) 255 255 80 255 
-0.001116037 -0.0310439 0.2069376 -nan(ind) -nan(ind) -nan(ind) 255 255 80 255 
0.002528936 -0.03073369 0.2094781 -nan(ind) -nan(ind) -nan(ind) 255 255 80 255 
0.01135024 -0.02974254 0.2120009 -nan(ind) -nan(ind) -nan(ind) 255 255 80 255 
0.01754123 -0.02910564 0.2146583 -nan(ind) -nan(ind) -nan(ind) 255 255 80 255 
0.02534848 -0.02826197 0.2173988 -nan(ind) -nan(ind) -nan(ind) 255 255 80 255 
0.03095669 -0.02771296 0.2202291 -nan(ind) -nan(ind) -nan(ind) 255 255 80 255 
0.03106043 -0.02788697 0.2230631 -nan(ind) -nan(ind) -nan(ind) 255 255 80 255 
0.02977863 -0.0282413 0.2258735 -nan(ind) -nan(ind) -nan(ind) 255 255 80 255 
0.02792895 -0.02866821 0.2286543 -nan(ind) -nan(ind) -nan(ind) 255 255 80 255 
0.0264543 -0.02904514 0.2314252 -nan(ind) -nan(ind) -nan(ind) 255 255 80 255 
0.02524617 -0.02938657 0.2341891 -nan(ind) -nan(ind) -nan(ind) 255 255 80 255 
0.02484655 -0.02962329 0.2369759 -nan(ind) -nan(ind) -nan(ind) 255 255 80 255 
0.02276728 -0.03007448 0.2396712 -nan(ind) -nan(ind) -nan(ind) 255 255 80 255 
0.02036956 -0.03056449 0.242322 -nan(ind) -nan(ind) -nan(ind) 255 255 80 255 
0.02151185 -0.03060293 0.2451746 -nan(ind) -nan(ind) -nan(ind) 255 255 80 255 
0.02386367 -0.03048934 0.2481306 -nan(ind) -nan(ind) -nan(ind) 255 255 80 255 
0.0240736 -0.03064794 0.2509504 -nan(ind) -nan(ind) -nan(ind) 255 255 80 255 
0.02712545 -0.03044957 0.2540162 -nan(ind) -nan(ind) -nan(ind) 255 255 80 255 
0.03435594 -0.02973048 0.2575066 -nan(ind) -nan(ind) -nan(ind) 255 255 80 255 
0.008187056 -0.03215368 0.2011969 -nan(ind) -nan(ind) -nan(ind) 255 255 80 255 
0.005692124 -0.0326482 0.2039438 -nan(ind) -nan(ind) -nan(ind) 255 255 80 255 
0.004028678 -0.03303551 0.2066389 -nan(ind) -nan(ind) -nan(ind) 255 255 80 255 
0.008027196 -0.03270788 0.209202 -nan(ind) -nan(ind) -nan(ind) 255 255 80 255 
0.01571921 -0.03191993 0.2117698 -nan(ind) -nan(ind) -nan(ind) 255 255 80 255 
0.02383438 -0.03108577 0.2144373 -nan(ind) -nan(ind) -nan(ind) 255 255 80 255 
0.02856547 -0.03068082 0.2172143 -nan(ind) -nan(ind) -nan(ind) 255 255 80 255 
0.03149197 -0.03050435 0.2200444 -nan(ind) -nan(ind) -nan(ind) 255 255 80 255 
0.03039846 -0.03082841 0.2228642 -nan(ind) -nan(ind) -nan(ind) 255 255 80 255 
0.02879938 -0.03121397 0.2256623 -nan(ind) -nan(ind) -nan(ind) 255 255 80 255 
0.02768701 -0.03153834 0.228454 -nan(ind) -nan(ind) -nan(ind) 255 255 80 255 
0.02723566 -0.03178076 0.2312545 -nan(ind) -nan(ind) -nan(ind) 255 255 80 255 
0.02665505 -0.03203863 0.2340459 -nan(ind) -nan(ind) -nan(ind) 255 255 80 255 
0.02740216 -0.03213445 0.2368916 -nan(ind) -nan(ind) -nan(ind) 255 255 80 255 
0.02486181 -0.03262955 0.2395782 -nan(ind) -nan(ind) -nan(ind) 255 255 80 255 
0.02076113 -0.03331098 0.242142 -nan(ind) -nan(ind) -nan(ind) 255 255 80 255 
0.02117983 -0.0334448 0.2449471 -nan(ind) -nan(ind) -nan(ind) 255 255 80 255 
0.02491781 -0.03318085 0.2479965 -nan(ind) -nan(ind) -nan(ind) 255 255 80 255 
0.02495024 -0.03336301 0.2508068 -nan(ind) -nan(ind) -nan(ind) 255 255 80 255 
0.02585045 -0.03344185 0.2536922 -nan(ind) -nan(ind) -nan(ind) 255 255 80 255 
0.03248572 -0.03284105 0.2571137 -nan(ind) -nan(ind) -nan(ind) 255 255 80 255 
0.03718865 -0.03247441 0.2604344 -nan(ind) -nan(ind) -nan(ind) 255 255 80 255 
0.04422298 -0.03183726 0.2640612 -nan(ind) -nan(ind) -nan(ind) 255 255 80 255 
0.01187339 -0.03440524 0.2008892 -nan(ind) -nan(ind) -nan(ind) 255 255 80 255 
0.009253293 -0.03490103 0.2036628 -nan(ind) -nan(ind) -nan(ind) 255 255 80 255 
0.008844316 -0.03512953 0.2063457 -nan(ind) -nan(ind) -nan(ind) 255 255 80 255 
0.01200145 -0.03493172 0.2089532 -nan(ind) -nan(ind) -nan(ind) 255 255 80 255 
0.02066615 -0.03408119 0.2115277 -nan(ind) -nan(ind) -nan(ind) 255 255 80 255 
0.0275183 -0.03345322 0.2142308 -nan(ind) -nan(ind) -nan(ind) 255 255 80 255 
0.03224975 -0.03308183 0.2170273 -nan(ind) -nan(ind) -nan(ind) 255 255 80 255 
0.03353724 -0.03312002 0.2198684 -nan(ind) -nan(ind) -nan(ind) 255 255 80 255 
0.03077552 -0.03363425 0.2226792 -nan(ind) -nan(ind) -nan(ind) 255 255 80 255 
0.02842817 -0.03409769 0.2254639 -nan(ind) -nan(ind) -nan(ind) 255 255 80 255 
0.0295102 -0.03415989 0.2283065 -nan(ind) -nan(ind) -nan(ind) 255 255 80 255 
0.02881384 -0.03442929 0.2311088 -nan(ind) -nan(ind) -nan(ind) 255 255 80 255 
0.02897564 -0.03459893 0.2339367 -nan(ind) -nan(ind) -nan(ind) 255 255 80 255 
0.02980083 -0.03469237 0.2367982 -nan(ind) -nan(ind) -nan(ind) 255 255 80 255 
0.0280439 -0.03508257 0.2395396 -nan(ind) -nan(ind) -nan(ind) 255 255 80 255 
0.02309188 -0.03583619 0.2420743 -nan(ind) -nan(ind) -nan(ind) 255 255 80 255 
0.02381828 -0.03593933 0.2449118 -nan(ind) -nan(ind) -nan(ind) 255 255 80 255 
0.02689052 -0.03577717 0.2479269 -nan(ind) -nan(ind) -nan(ind) 255 255 80 255 
0.02681491 -0.03597308 0.2507392 -nan(ind) -nan(ind) -nan(ind) 255 255 80 255 
0.0275712 -0.03607532 0.2536218 -nan(ind) -nan(ind) -nan(ind) 255 255 80 255 
0.03254002 -0.03570619 0.2568975 -nan(ind) -nan(ind) -nan(ind) 255 255 80 255 
0.03761742 -0.03532921 0.2602501 -nan(ind) -nan(ind) -nan(ind) 255 255 80 255 
0.0449056 -0.03471081 0.2638999 -nan(ind) -nan(ind) -nan(ind) 255 255 80 255 
0.01615101 -0.03663276 0.2005557 -nan(ind) -nan(ind) -nan(ind) 255 255 80 255 
0.01096138 -0.03740663 0.2034423 -nan(ind) -nan(ind) -nan(ind) 255 255 80 255 
0.01088917 -0.03759598 0.2061248 -nan(ind) -nan(ind) -nan(ind) 255 255 80 255 
0.01574945 -0.03722842 0.2087064 -nan(ind) -nan(ind) -nan(ind) 255 255 80 255 
0.02288231 -0.03660957 0.2113212 -nan(ind) -nan(ind) -nan(ind) 255 255 80 255 
0.02999863 -0.03599884 0.2140313 -nan(ind) -nan(ind) -nan(ind) 255 255 80 255 
0.03440553 -0.03569671 0.2168398 -nan(ind) -nan(ind) -nan(ind) 255 255 80 255 
0.03353187 -0.03598537 0.2196805 -nan(ind) -nan(ind) -nan(ind) 255 255 80 255 
0.02857497 -0.03672532 0.2224641 -nan(ind) -nan(ind) -nan(ind) 255 255 80 255 
0.0276849 -0.03701247 0.2252596 -nan(ind) -nan(ind) -nan(ind) 255 255 80 255 
0.02903882 -0.03705235 0.2281011 -nan(ind) -nan(ind) -nan(ind) 255 255 80 255 
0.02912134 -0.03723248 0.2309224 -nan(ind) -nan(ind) -nan(ind) 255 255 80 255 
0.02943191 -0.03738781 0.2337553 -nan(ind) -nan(ind) -nan(ind) 255 255 80 255 
0.02963054 -0.03755553 0.2365891 -nan(ind) -nan(ind) -nan(ind) 255 255 80 255 
0.0281238 -0.03790769 0.2393403 -nan(ind) -nan(ind) -nan(ind) 255 255 80 255 
0.02416378 -0.03852257 0.2419324 -nan(ind) -nan(ind) -nan(ind) 255 255 80 255 
0.0253332 -0.03858401 0.2448024 -nan(ind) -nan(ind) -nan(ind) 255 255 80 255 
0.0277167 -0.03851678 0.2477748 -nan(ind) -nan(ind) -nan(ind) 255 255 80 255 
0.0296326 -0.03850129 0.2507436 -nan(ind) -nan(ind) -nan(ind) 255 255 80 255 
0.03214493 -0.03842424 0.2537887 -nan(ind) -nan(ind) -nan(ind) 255 255 80 255 
0.03457707 -0.03835776 0.2568604 -nan(ind) -nan(ind) -nan(ind) 255 255 80 255 
0.03750291 -0.03824147 0.2600129 -nan(ind) -nan(ind) -nan(ind) 255 255 80 255 
0.04525903 -0.03762246 0.2637039 -nan(ind) -nan(ind) -nan(ind) 255 255 80 255 
0.05348289 -0.0369614 0.267549 -nan(ind) -nan(ind) -nan(ind) 255 255 80 255 
0.01747379 -0.03922949 0.2003396 -nan(ind) -nan(ind) -nan(ind) 255 255 80 255 
0.01233533 -0.03996551 0.2032325 -nan(ind) -nan(ind) -nan(ind) 255 255 80 255 
0.01418415 -0.0399508 0.2058683 -nan(ind) -nan(ind) -nan(ind) 255 255 80 255 
0.01958185 -0.03956029 0.2084555 -nan(ind) -nan(ind) -nan(ind) 255 255 80 255 
0.02558973 -0.0391099 0.2111063 -nan(ind) -nan(ind) -nan(ind) 255 255 80 255 
0.032307 -0.03858997 0.2138317 -nan(ind) -nan(ind) -nan(ind) 255 255 80 255 
0.03391162 -0.03861295 0.2166556 -nan(ind) -nan(ind) -nan(ind) 255 255 80 255 
0.03198877 -0.03900627 0.2194858 -nan(ind) -nan(ind) -nan(ind) 255 255 80 255 
0.02991453 -0.03941363 0.2222915 -nan(ind) -nan(ind) -nan(ind) 255 255 80 255 
0.02907696 -0.03969087 0.2250945 -nan(ind) -nan(ind) -nan(ind) 255 255 80 255 
0.02816352 -0.03997516 0.2278867 -nan(ind) -nan(ind) -nan(ind) 255 255 80 255 
0.02898729 -0.04007994 0.2307225 -nan(ind) -nan(ind) -nan(ind) 255 255 80 255 
0.0294387 -0.04022351 0.2335571 -nan(ind) -nan(ind) -nan(ind) 255 255 80 255 
0.02843326 -0.04051595 0.2363354 -nan(ind) -nan(ind) -nan(ind) 255 255 80 255 
0.02716604 -0.040834 0.239089 -nan(ind) -nan(ind) -nan(ind) 255 255 80 255 
0.02675185 -0.04106463 0.2418762 -nan(ind) -nan(ind) -nan(ind) 255 255 80 255 
0.02843711 -0.04108352 0.2447928 -nan(ind) -nan(ind) -nan(ind) 255 255 80 255 
0.03101018 -0.04101485 0.2477951 -nan(ind) -nan(ind) -nan(ind) 255 255 80 255 
0.03324008 -0.04098254 0.250806 -nan(ind) -nan(ind) -nan(ind) 255 255 80 255 
0.03430334 -0.04106797 0.2537503 -nan(ind) -nan(ind) -nan(ind) 255 255 80 255 
0.03705344 -0.0409874 0.2568609 -nan(ind) -nan(ind) -nan(ind) 255 255 80 255 
0.03929198 -0.04095948 0.2599593 -nan(ind) -nan(ind) -nan(ind) 255 255 80 255 
0.04525912 -0.04056796 0.2634715 -nan(ind) -nan(ind) -nan(ind) 255 255 80 255 
0.05343047 -0.03996643 0.2673038 -nan(ind) -nan(ind) -nan(ind) 255 255 80 255 
0.01981571 -0.04173536 0.2000814 -nan(ind) -nan(ind) -nan(ind) 255 255 80 255 
0.02001628 -0.04190218 0.2028046 -nan(ind) -nan(ind) -nan(ind) 255 255 80 255 
0.02161759 -0.04192873 0.2054939 -nan(ind) -nan(ind) -nan(ind) 255 255 80 255 
0.02590233 -0.0416888 0.2081485 -nan(ind) -nan(ind) -nan(ind) 255 255 80 255 
0.02953792 -0.04151715 0.2108711 -nan(ind) -nan(ind) -nan(ind) 255 255 80 255 
0.03267726 -0.04139778 0.2136476 -nan(ind) -nan(ind) -nan(ind) 255 255 80 255 
0.03204486 -0.04165263 0.2164754 -nan(ind) -nan(ind) -nan(ind) 255 255 80 255 
0.03225541 -0.04182421 0.219301 -nan(ind) -nan(ind) -nan(ind) 255 255 80 255 
0.03176951 -0.0420639 0.222124 -nan(ind) -nan(ind) -nan(ind) 255 255 80 255 
0.03068894 -0.04236087 0.2249325 -nan(ind) -nan(ind) -nan(ind) 255 255 80 255 
0.02745593 -0.042865 0.2276776 -nan(ind) -nan(ind) -nan(ind) 255 255 80 255 
0.02811065 -0.04299186 0.2305007 -nan(ind) -nan(ind) -nan(ind) 255 255 80 255 
0.03003305 -0.0429977 0.2333811 -nan(ind) -nan(ind) -nan(ind) 255 255 80 255 
0.02968973 -0.04322129 0.2361899 -nan(ind) -nan(ind) -nan(ind) 255 255 80 255 
0.02905661 -0.04347199 0.2389813 -nan(ind) -nan(ind) -nan(ind) 255 255 80 255 
0.02903825 -0.0436639 0.2418009 -nan(ind) -nan(ind) -nan(ind) 255 255 80 255 
0.03178731 -0.04359531 0.2447961 -nan(ind) -nan(ind) -nan(ind) 255 255 80 255 
0.03244728 -0.04372464 0.2476832 -nan(ind) -nan(ind) -nan(ind) 255 255 80 255 
0.03296134 -0.04386801 0.2505692 -nan(ind) -nan(ind) -nan(ind) 255 255 80 255 
0.03425613 -0.04393926 0.2535276 -nan(ind) -nan(ind) -nan(ind) 255 255 80 255 
0.03803408 -0.04378225 0.2567256 -nan(ind) -nan(ind) -nan(ind) 255 255 80 255 
0.04130873 -0.04367464 0.2599259 -nan(ind) -nan(ind) -nan(ind) 255 255 80 255 
0.04857963 -0.04320429 0.2635789 -nan(ind) -nan(ind) -nan(ind) 255 255 80 255 
0.05559939 -0.04276299 0.2673006 -nan(ind) -nan(ind) -nan(ind) 255 255 80 255 
0.05455866 -0.04305772 0.2701847 -nan(ind) -nan(ind) -nan(ind) 255 255 80 255 
0.02978393 -0.0435449 0.1995066 -nan(ind) -nan(ind) -nan(ind) 255 255 80 255 
0.03415546 -0.0433256 0.2021459 -nan(ind) -nan(ind) -nan(ind) 255 255 80 255 
0.03283432 -0.04364381 0.2050065 -nan(ind) -nan(ind) -nan(ind) 255 255 80 255 
0.03140736 -0.04397066 0.2078551 -nan(ind) -nan(ind) -nan(ind) 255 255 80 255 
0.03102157 -0.0441995 0.2106716 -nan(ind) -nan(ind) -nan(ind) 255 255 80 255 
0.03150216 -0.04434787 0.2134778 -nan(ind) -nan(ind) -nan(ind) 255 255 80 255 
0.0312278 -0.04456602 0.2162947 -nan(ind) -nan(ind) -nan(ind) 255 255 80 255 
0.03399995 -0.04450502 0.2191223 -nan(ind) -nan(ind) -nan(ind) 255 255 80 255 
0.03459138 -0.04464499 0.2219654 -nan(ind) -nan(ind) -nan(ind) 255 255 80 255 
0.03383458 -0.04490758 0.2247956 -nan(ind) -nan(ind) -nan(ind) 255 255 80 255 
0.03113794 -0.04534435 0.2275726 -nan(ind) -nan(ind) -nan(ind) 255 255 80 255 
0.0299738 -0.04564106 0.2303623 -nan(ind) -nan(ind) -nan(ind) 255 255 80 255 
0.02954486 -0.04587096 0.2331655 -nan(ind) -nan(ind) -nan(ind) 255 255 80 255 
0.0313125 -0.04590515 0.2360594 -nan(ind) -nan(ind) -nan(ind) 255 255 80 255 
0.03211439 -0.04602616 0.2389301 -nan(ind) -nan(ind) -nan(ind) 255 255 80 255 
0.03364259 -0.04608382 0.2418536 -nan(ind) -nan(ind) -nan(ind) 255 255 80 255 
0.03335398 -0.04630171 0.2446849 -nan(ind) -nan(ind) -nan(ind) 255 255 80 255 
0.03291863 -0.04653196 0.2475036 -nan(ind) -nan(ind) -nan(ind) 255 255 80 255 
0.03333667 -0.0466877 0.2503825 -nan(ind) -nan(ind) -nan(ind) 255 255 80 255 
0.03453743 -0.04677616 0.2533323 -nan(ind) -nan(ind) -nan(ind) 255 255 80 255 
0.04031917 -0.04647255 0.2567053 -nan(ind) -nan(ind) -nan(ind) 255 255 80 255 
0.04665914 -0.04612619 0.2602082 -nan(ind) -nan(ind) -nan(ind) 255 255 80 255 
0.05143106 -0.04591834 0.2636353 -nan(ind) -nan(ind) -nan(ind) 255 255 80 255 
0.05552417 -0.04577179 0.2670522 -nan(ind) -nan(ind) -nan(ind) 255 255 80 255 
0.05592424 -0.04593892 0.270099 -nan(ind) -nan(ind) -nan(ind) 255 255 80 255 
0.05144927 -0.04651366 0.2725598 -nan(ind) -nan(ind) -nan(ind) 255 255 80 255 
0.04496518 -0.04521966 0.2015946 -nan(ind) -nan(ind) -nan(ind) 255 255 80 255 
0.03914359 -0.0459277 0.2046527 -nan(ind) -nan(ind) -nan(ind) 255 255 80 255 
0.03642428 -0.0463612 0.2075688 -nan(ind) -nan(ind) -nan(ind) 255 255 80 255 
0.03341743 -0.04681701 0.210457 -nan(ind) -nan(ind) -nan(ind) 255 255 80 255 
0.03186226 -0.04714534 0.2132952 -nan(ind) -nan(ind) -nan(ind) 255 255 80 255 
0.03385881 -0.04716867 0.216105 -nan(ind) -nan(ind) -nan(ind) 255 255 80 255 
0.03666905 -0.04712451 0.218946 -nan(ind) -nan(ind) -nan(ind) 255 255 80 255 
0.03731558 -0.04726567 0.2218041 -nan(ind) -nan(ind) -nan(ind) 255 255 80 255 
0.03881595 -0.04733547 0.2246868 -nan(ind) -nan(ind) -nan(ind) 255 255 80 255 
0.03581825 -0.04778279 0.2274877 -nan(ind) -nan(ind) -nan(ind) 255 255 80 255 
0.03334436 -0.0481837 0.2302671 -nan(ind) -nan(ind) -nan(ind) 255 255 80 255 
0.03116947 -0.0485575 0.2330269 -nan(ind) -nan(ind) -nan(ind) 255 255 80 255 
0.03256878 -0.04863491 0.2359122 -nan(ind) -nan(ind) -nan(ind) 255 255 80 255 
0.03485265 -0.04864095 0.2388607 -nan(ind) -nan(ind) -nan(ind) 255 255 80 255 
0.03465796 -0.04885071 0.2417029 -nan(ind) -nan(ind) -nan(ind) 255 255 80 255 
0.03413293 -0.04908687 0.2445236 -nan(ind) -nan(ind) -nan(ind) 255 255 80 255 
0.03362158 -0.04932125 0.2473397 -nan(ind) -nan(ind) -nan(ind) 255 255 80 255 
0.03509593 -0.04939589 0.2502997 -nan(ind) -nan(ind) -nan(ind) 255 255 80 255 
0.03926751 -0.04925669 0.2535003 -nan(ind) -nan(ind) -nan(ind) 255 255 80 255 
0.0457935 -0.0489344 0.2569643 -nan(ind) -nan(ind) -nan(ind) 255 255 80 255 
0.04795042 -0.04896192 0.2601006 -nan(ind) -nan(ind) -nan(ind) 255 255 80 255 
0.05232531 -0.0488173 0.2634907 -nan(ind) -nan(ind) -nan(ind) 255 255 80 255 
0.05589709 -0.04873887 0.2668523 -nan(ind) -nan(ind) -nan(ind) 0 50 255 255 
0.05834994 -0.04875002 0.2701334 -nan(ind) -nan(ind) -nan(ind) 0 50 255 255 
0.043331 -0.04845935 0.2043566 -nan(ind) -nan(ind) -nan(ind) 255 255 80 255 
0.04214412 -0.048755 0.2072632 -nan(ind) -nan(ind) -nan(ind) 255 255 80 255 
0.03985807 -0.0491372 0.2101752 -nan(ind) -nan(ind) -nan(ind) 255 255 80 255 
0.03919101 -0.04938869 0.2130441 -nan(ind) -nan(ind) -nan(ind) 255 255 80 255 
0.03843191 -0.04964671 0.2159073 -nan(ind) -nan(ind) -nan(ind) 255 255 80 255 
0.04083711 -0.04965549 0.2187727 -nan(ind) -nan(ind) -nan(ind) 255 255 80 255 
0.04440603 -0.04957543 0.2216828 -nan(ind) -nan(ind) -nan(ind) 255 255 80 255 
0.04562157 -0.04968104 0.2246036 -nan(ind) -nan(ind) -nan(ind) 255 255 80 255 
0.04241607 -0.05012867 0.2274425 -nan(ind) -nan(ind) -nan(ind) 255 255 80 255 
0.03709507 -0.05073553 0.2301804 -nan(ind) -nan(ind) -nan(ind) 255 255 80 255 
0.03286484 -0.05125426 0.2328898 -nan(ind) -nan(ind) -nan(ind) 255 255 80 255 
0.03214836 -0.0515026 0.2356938 -nan(ind) -nan(ind) -nan(ind) 255 255 80 255 
0.03268808 -0.0516554 0.2385511 -nan(ind) -nan(ind) -nan(ind) 255 255 80 255 
0.03427044 -0.05173036 0.2414744 -nan(ind) -nan(ind) -nan(ind) 255 255 80 255 
0.03507465 -0.05186445 0.244372 -nan(ind) -nan(ind) -nan(ind) 255 255 80 255 
0.03671554 -0.05193707 0.2473384 -nan(ind) -nan(ind) -nan(ind) 255 255 80 255 
0.03868598 -0.05198666 0.2503521 -nan(ind) -nan(ind) -nan(ind) 255 255 80 255 
0.0420098 -0.05193872 0.2535025 -nan(ind) -nan(ind) -nan(ind) 255 255 80 255 
0.04664111 -0.05179841 0.2568122 -nan(ind) -nan(ind) -nan(ind) 255 255 80 255 
0.05087125 -0.05169092 0.2601455 -nan(ind) -nan(ind) -nan(ind) 255 255 80 255 
0.05520198 -0.05157967 0.2635452 -nan(ind) -nan(ind) -nan(ind) 0 50 255 255 
0.05747324 -0.05161899 0.2667813 -nan(ind) -nan(ind) -nan(ind) 0 50 255 255 
0.04694131 -0.05128543 0.2069752 -nan(ind) -nan(ind) -nan(ind) 0 50 255 255 
0.0479925 -0.05141109 0.2098604 -nan(ind) -nan(ind) -nan(ind) 0 50 255 255 
0.04689321 -0.05169432 0.2127839 -nan(ind) -nan(ind) -nan(ind) 255 255 80 255 
0.04611796 -0.05195291 0.2156945 -nan(ind) -nan(ind) -nan(ind) 255 255 80 255 
0.04883167 -0.05195938 0.2186067 -nan(ind) -nan(ind) -nan(ind) 0 50 255 255 
0.05124387 -0.05198967 0.2215537 -nan(ind) -nan(ind) -nan(ind) 0 50 255 255 
0.05364656 -0.0520226 0.224534 -nan(ind) -nan(ind) -nan(ind) 0 50 255 255 
0.04974806 -0.05250272 0.2274083 -nan(ind) -nan(ind) -nan(ind) 0 50 255 255 
0.04352617 -0.05314225 0.2301676 -nan(ind) -nan(ind) -nan(ind) 255 255 80 255 
0.03766385 -0.05375089 0.2328606 -nan(ind) -nan(ind) -nan(ind) 255 255 80 255 
0.03509173 -0.05412599 0.2356161 -nan(ind) -nan(ind) -nan(ind) 255 255 80 255 
0.03319946 -0.05445172 0.2383726 -nan(ind) -nan(ind) -nan(ind) 255 255 80 255 
0.03551018 -0.05448792 0.2413356 -nan(ind) -nan(ind) -nan(ind) 255 255 80 255 
0.03760153 -0.05454083 0.2443167 -nan(ind) -nan(ind) -nan(ind) 255 255 80 255 
0.04049739 -0.054541 0.2473809 -nan(ind) -nan(ind) -nan(ind) 255 255 80 255 
0.04337284 -0.05454484 0.2504826 -nan(ind) -nan(ind) -nan(ind) 255 255 80 255 
0.04550067 -0.05460079 0.2535627 -nan(ind) -nan(ind) -nan(ind) 255 255 80 255 
0.04795754 -0.05463655 0.2567004 -nan(ind) -nan(ind) -nan(ind) 255 255 80 255 
0.05552065 -0.05433839 0.2603497 -nan(ind) -nan(ind) -nan(ind) 0 50 255 255 
0.05468512 -0.05459523 0.2632567 -nan(ind) -nan(ind) -nan(ind) 0 50 255 255 
0.05360693 -0.05395307 0.2095831 -nan(ind) -nan(ind) -nan(ind) 0 50 255 255 
0.05276272 -0.05421568 0.2125377 -nan(ind) -nan(ind) -nan(ind) 0 50 255 255 
0.05542481 -0.05424597 0.2154691 -nan(ind) -nan(ind) -nan(ind) 0 50 255 255 
0.05574039 -0.05443221 0.2184322 -nan(ind) -nan(ind) -nan(ind) 0 50 255 255 
0.05727082 -0.05453944 0.2214122 -nan(ind) -nan(ind) -nan(ind) 0 50 255 255 
0.05948311 -0.05460375 0.2244248 -nan(ind) -nan(ind) -nan(ind) 0 50 255 255 
0.05647701 -0.0550047 0.2273551 -nan(ind) -nan(ind) -nan(ind) 0 50 255 255 
0.05183899 -0.05550668 0.2302025 -nan(ind) -nan(ind) -nan(ind) 0 50 255 255 
0.04551467 -0.05611094 0.2329333 -nan(ind) -nan(ind) -nan(ind) 255 255 80 255 
0.03932157 -0.056701 0.2355892 -nan(ind) -nan(ind) -nan(ind) 255 255 80 255 
0.03651884 -0.05707375 0.2383279 -nan(ind) -nan(ind) -nan(ind) 255 255 80 255 
0.03863236 -0.0571392 0.2412979 -nan(ind) -nan(ind) -nan(ind) 255 255 80 255 
0.04158062 -0.05715493 0.2443475 -nan(ind) -nan(ind) -nan(ind) 255 255 80 255 
0.04592648 -0.05708768 0.2475307 -nan(ind) -nan(ind) -nan(ind) 255 255 80 255 
0.04931018 -0.05708229 0.250701 -nan(ind) -nan(ind) -nan(ind) 0 50 255 255 
0.05246133 -0.0570936 0.2538979 -nan(ind) -nan(ind) -nan(ind) 0 50 255 255 
0.05592021 -0.057089 0.2571637 -nan(ind) -nan(ind) -nan(ind) 0 50 255 255 
0.05377862 -0.05689052 0.2093973 -nan(ind) -nan(ind) -nan(ind) 0 50 255 255 
0.05406627 -0.05708078 0.2123379 -nan(ind) -nan(ind) -nan(ind) 0 50 255 255 
0.05678886 -0.05712613 0.2152735 -nan(ind) -nan(ind) -nan(ind) 0 50 255 255 
0.05738178 -0.05729949 0.2182428 -nan(ind) -nan(ind) -nan(ind) 0 50 255 255 
0.05707994 -0.05752558 0.2212148 -nan(ind) -nan(ind) -nan(ind) 0 50 255 255 
0.05848262 -0.05765197 0.2242102 -nan(ind) -nan(ind) -nan(ind) 0 50 255 255 
0.05645153 -0.05797752 0.2271531 -nan(ind) -nan(ind) -nan(ind) 0 50 255 255 
0.05363595 -0.05834584 0.23005 -nan(ind) -nan(ind) -nan(ind) 0 50 255 255 
0.05105242 -0.05869815 0.2329203 -nan(ind) -nan(ind) -nan(ind) 0 50 255 255 
0.04866982 -0.0590365 0.2357671 -nan(ind) -nan(ind) -nan(ind) 0 50 255 255 
0.04436705 -0.05947975 0.2384941 -nan(ind) -nan(ind) -nan(ind) 255 255 80 255 
0.04593855 -0.05959304 0.2414822 -nan(ind) -nan(ind) -nan(ind) 0 50 255 255 
0.04745632 -0.05971037 0.244489 -nan(ind) -nan(ind) -nan(ind) 0 50 255 255 
0.05180901 -0.05967404 0.2477059 -nan(ind) -nan(ind) -nan(ind) 0 50 255 255 
0.05797055 -0.05954337 0.2511132 -nan(ind) -nan(ind) -nan(ind) 0 50 255 255 
0.05879152 -0.05970447 0.2541763 -nan(ind) -nan(ind) -nan(ind) 0 50 255 255 
0.0524461 -0.05990528 0.2092391 -nan(ind) -nan(ind) -nan(ind) 0 50 255 255 
0.0514223 -0.06016787 0.2121832 -nan(ind) -nan(ind) -nan(ind) 0 50 255 255 
0.05212381 -0.06033769 0.2151079 -nan(ind) -nan(ind) -nan(ind) 0 50 255 255 
0.05324557 -0.06048578 0.2180446 -nan(ind) -nan(ind) -nan(ind) 0 50 255 255 
0.05368817 -0.06067 0.2209929 -nan(ind) -nan(ind) -nan(ind) 0 50 255 255 
0.05404899 -0.06085856 0.2239479 -nan(ind) -nan(ind) -nan(ind) 0 50 255 255 
0.05041724 -0.06125176 0.2268267 -nan(ind) -nan(ind) -nan(ind) 0 50 255 255 
0.04956293 -0.06150026 0.2297363 -nan(ind) -nan(ind) -nan(ind) 0 50 255 255 
0.05276248 -0.06154356 0.2327736 -nan(ind) -nan(ind) -nan(ind) 0 50 255 255 
0.05390811 -0.06169189 0.2357716 -nan(ind) -nan(ind) -nan(ind) 0 50 255 255 
0.05191723 -0.06199599 0.2386396 -nan(ind) -nan(ind) -nan(ind) 0 50 255 255 
0.05091467 -0.06224953 0.2415361 -nan(ind) -nan(ind) -nan(ind) 0 50 255 255 
0.0516147 -0.06241914 0.2445227 -nan(ind) -nan(ind) -nan(ind) 0 50 255 255 
0.0553892 -0.06244114 0.2477234 -nan(ind) -nan(ind) -nan(ind) 0 50 255 255 
0.06003284 -0.06242473 0.2510376 -nan(ind) -nan(ind) -nan(ind) 0 50 255 255 
0.05120152 -0.06289254 0.2090811 -nan(ind) -nan(ind) -nan(ind) 0 50 255 255 
0.04947242 -0.06318207 0.212023 -nan(ind) -nan(ind) -nan(ind) 0 50 255 255 
0.04861405 -0.06342911 0.2149404 -nan(ind) -nan(ind) -nan(ind) 0 50 255 255 
0.05056542 -0.06354532 0.217852 -nan(ind) -nan(ind) -nan(ind) 0 50 255 255 
0.05046809 -0.06375664 0.2207757 -nan(ind) -nan(ind) -nan(ind) 0 50 255 255 
0.04955128 -0.06400465 0.2236891 -nan(ind) -nan(ind) -nan(ind) 0 50 255 255 
0.04538769 -0.06439696 0.2265266 -nan(ind) -nan(ind) -nan(ind) 0 50 255 255 
0.04548326 -0.06459624 0.2294266 -nan(ind) -nan(ind) -nan(ind) 0 50 255 255 
0.04969788 -0.06461442 0.2324669 -nan(ind) -nan(ind) -nan(ind) 0 50 255 255 
0.05506116 -0.06458615 0.2356093 -nan(ind) -nan(ind) -nan(ind) 0 50 255 255 
0.05691421 -0.06471326 0.2386605 -nan(ind) -nan(ind) -nan(ind) 0 50 255 255 
0.05806044 -0.06487174 0.2417002 -nan(ind) -nan(ind) -nan(ind) 0 50 255 255 
0.05482513 -0.06521528 0.2444968 -nan(ind) -nan(ind) -nan(ind) 0 50 255 255 
0.0503912 -0.06604835 0.2118299 -nan(ind) -nan(ind) -nan(ind) 0 50 255 255 
0.04998615 -0.06627291 0.2147479 -nan(ind) -nan(ind) -nan(ind) 0 50 255 255 
0.05658188 -0.06621848 0.2176672 -nan(ind) -nan(ind) -nan(ind) 0 50 255 255 
0.05305004 -0.06656767 0.2206027 -nan(ind) -nan(ind) -nan(ind) 0 50 255 255 
0.0494397 -0.0669163 0.2234938 -nan(ind) -nan(ind) -nan(ind) 0 50 255 255 
0.0477165 -0.06718886 0.2263781 -nan(ind) -nan(ind) -nan(ind) 0 50 255 255 
0.04648307 -0.06744088 0.2292551 -nan(ind) -nan(ind) -nan(ind) 0 50 255 255 
0.04850522 -0.06756942 0.232225 -nan(ind) -nan(ind) -nan(ind) 0 50 255 255 
0.05524427 -0.06752483 0.2354083 -nan(ind) -nan(ind) -nan(ind) 0 50 255 255 
