# .PCD v0.7 - Point Cloud Data file format
VERSION 0.7
FIELDS x y z
SIZE 4 4 4
TYPE F F F
COUNT 1 1 1
WIDTH 1337
HEIGHT 1
VIEWPOINT 0 0 0 1 0 0 0
POINTS 1337
DATA ascii
0.053046502 -0.098509111 0.56900001
0.054045677 -0.098682247 0.57000005
0.055048019 -0.098855369 0.57100004
0.055955552 -0.098855369 0.57100004
0.056863081 -0.098855369 0.57100004
0.057871781 -0.09902849 0.57200003
0.058883663 -0.09920162 0.57300001
0.059898723 -0.099374741 0.574
0.06081102 -0.099374741 0.574
-0.008122649 -0.093830943 0.54700005
-0.007279784 -0.094174013 0.54900002
-0.0064188908 -0.094345547 0.55000001
-0.0055447384 -0.094345547 0.55000001
-0.004670586 -0.094345547 0.55000001
-0.0038033358 -0.094517082 0.551
-0.0029329075 -0.094688624 0.55200005
-0.0020593 -0.094860166 0.55300003
-0.0011803791 -0.094860166 0.55300003
-0.00030145844 -0.094860166 0.55300003
0.00057746231 -0.094860166 0.55300003
0.0014563829 -0.094860166 0.55300003
0.0023353039 -0.094860166 0.55300003
0.0032142245 -0.094860166 0.55300003
0.0041005467 -0.095031701 0.55400002
0.0049810568 -0.095031701 0.55400002
0.0058721476 -0.095203236 0.55500001
0.0067542465 -0.095203236 0.55500001
0.0076501057 -0.095374778 0.55600005
0.0085491426 -0.095546313 0.55700004
0.0094513595 -0.095717847 0.55800003
0.010338226 -0.095717847 0.55800003
0.011265327 -0.096060917 0.56
0.012155374 -0.096060917 0.56
0.013068716 -0.096232466 0.56100005
0.013985236 -0.096404001 0.56200004
0.014904934 -0.096575536 0.56300002
0.015827812 -0.096747071 0.56400001
0.016724216 -0.096747071 0.56400001
0.017651862 -0.096918605 0.565
0.018549856 -0.096918605 0.565
0.019482272 -0.097090147 0.56600004
0.020381855 -0.097090147 0.56600004
0.021281434 -0.097090147 0.56600004
0.022220206 -0.097261682 0.56700003
0.023121379 -0.097261682 0.56700003
0.024022551 -0.097261682 0.56700003
0.02496768 -0.097433224 0.56800002
0.025870439 -0.097433224 0.56800002
0.026773201 -0.097433224 0.56800002
0.027675962 -0.097433224 0.56800002
0.028578725 -0.097433224 0.56800002
0.029481485 -0.097433224 0.56800002
0.030384246 -0.097433224 0.56800002
0.031231925 -0.097261682 0.56700003
0.032133099 -0.097261682 0.56700003
0.033034269 -0.097261682 0.56700003
0.033935443 -0.097261682 0.56700003
0.034775171 -0.097090147 0.56600004
0.035674758 -0.097090147 0.56600004
0.036574338 -0.097090147 0.56600004
0.037473921 -0.097090147 0.56600004
0.038373504 -0.097090147 0.56600004
0.039273087 -0.097090147 0.56600004
0.04017267 -0.097090147 0.56600004
0.041072249 -0.097090147 0.56600004
0.041971833 -0.097090147 0.56600004
0.042871416 -0.097090147 0.56600004
0.043770999 -0.097090147 0.56600004
0.044670582 -0.097090147 0.56600004
0.045650676 -0.097261682 0.56700003
0.046551846 -0.097261682 0.56700003
0.04745302 -0.097261682 0.56700003
0.04835419 -0.097261682 0.56700003
0.049342234 -0.097433224 0.56800002
0.050244994 -0.097433224 0.56800002
0.051237799 -0.097604759 0.56900001
0.052142154 -0.097604759 0.56900001
0.053046502 -0.097604759 0.56900001
0.054045677 -0.097776301 0.57000005
0.055048019 -0.097947836 0.57100004
0.055955552 -0.097947836 0.57100004
0.056962665 -0.098119371 0.57200003
0.057871781 -0.098119371 0.57200003
0.058883663 -0.098290905 0.57300001
0.059898723 -0.09846244 0.574
0.060916971 -0.09863399 0.57500005
0.061830856 -0.09863399 0.57500005
0.062853858 -0.098805524 0.57600003
-0.007279784 -0.093301445 0.54900002
-0.0064188908 -0.093471393 0.55000001
-0.0055447384 -0.093471393 0.55000001
-0.0046790778 -0.093641341 0.551
-0.0038033358 -0.093641341 0.551
-0.0029329075 -0.093811296 0.55200005
-0.0020593 -0.093981236 0.55300003
-0.0011803791 -0.093981236 0.55300003
-0.00030145844 -0.093981236 0.55300003
0.00057746231 -0.093981236 0.55300003
0.0014563829 -0.093981236 0.55300003
0.0023353039 -0.093981236 0.55300003
0.0032200366 -0.094151184 0.55400002
0.0041005467 -0.094151184 0.55400002
0.0049810568 -0.094151184 0.55400002
0.0058721476 -0.094321132 0.55500001
0.0067542465 -0.094321132 0.55500001
0.0076501057 -0.094491087 0.55600005
0.0085491426 -0.094661035 0.55700004
0.0094513595 -0.094830975 0.55800003
0.010356753 -0.095000923 0.55900002
0.011265327 -0.09517087 0.56
0.012177081 -0.095340826 0.56100005
0.013092011 -0.095510773 0.56200004
0.014010121 -0.095680721 0.56300002
0.014931408 -0.095850661 0.56400001
0.015827812 -0.095850661 0.56400001
0.016753869 -0.096020609 0.565
0.017651862 -0.096020609 0.565
0.018582689 -0.096190564 0.56600004
0.019482272 -0.096190564 0.56600004
0.020381855 -0.096190564 0.56600004
0.021319034 -0.096360512 0.56700003
0.022220206 -0.096360512 0.56700003
0.023121379 -0.096360512 0.56700003
0.024022551 -0.096360512 0.56700003
0.02496768 -0.09653046 0.56800002
0.025870439 -0.09653046 0.56800002
0.026773201 -0.09653046 0.56800002
0.027675962 -0.09653046 0.56800002
0.028578725 -0.09653046 0.56800002
0.029481485 -0.09653046 0.56800002
0.030384246 -0.09653046 0.56800002
0.031231925 -0.096360512 0.56700003
0.032133099 -0.096360512 0.56700003
0.033034269 -0.096360512 0.56700003
0.033935443 -0.096360512 0.56700003
0.034836613 -0.096360512 0.56700003
0.035674758 -0.096190564 0.56600004
0.036574338 -0.096190564 0.56600004
0.037473921 -0.096190564 0.56600004
0.038373504 -0.096190564 0.56600004
0.039273087 -0.096190564 0.56600004
0.04017267 -0.096190564 0.56600004
0.041072249 -0.096190564 0.56600004
0.041971833 -0.096190564 0.56600004
0.042871416 -0.096190564 0.56600004
0.043770999 -0.096190564 0.56600004
0.044749506 -0.096360512 0.56700003
0.045650676 -0.096360512 0.56700003
0.046551846 -0.096360512 0.56700003
0.04745302 -0.096360512 0.56700003
0.048439469 -0.09653046 0.56800002
0.049342234 -0.09653046 0.56800002
0.050333451 -0.0967004 0.56900001
0.051237799 -0.0967004 0.56900001
0.052142154 -0.0967004 0.56900001
0.053046502 -0.0967004 0.56900001
0.054045677 -0.096870355 0.57000005
0.055048019 -0.097040303 0.57100004
0.055955552 -0.097040303 0.57100004
0.056863081 -0.097040303 0.57100004
0.057972953 -0.097380199 0.57300001
0.058883663 -0.097380199 0.57300001
0.059898723 -0.097550139 0.574
0.060916971 -0.097720094 0.57500005
0.061938386 -0.097890042 0.57600003
0.062962979 -0.09805999 0.57700002
0.064101472 -0.098399892 0.57900006
-0.007279784 -0.092428885 0.54900002
-0.0064188908 -0.092597246 0.55000001
-0.0055447384 -0.092597246 0.55000001
-0.0046790778 -0.092765599 0.551
-0.0038102388 -0.092933968 0.55200005
-0.0029329075 -0.092933968 0.55200005
-0.0020593 -0.093102321 0.55300003
-0.0011803791 -0.093102321 0.55300003
-0.00030145844 -0.093102321 0.55300003
0.00057746231 -0.093102321 0.55300003
0.0014590166 -0.093270682 0.55400002
0.0023395268 -0.093270682 0.55400002
0.0032200366 -0.093270682 0.55400002
0.0041005467 -0.093270682 0.55400002
0.0049900478 -0.093439035 0.55500001
0.0058721476 -0.093439035 0.55500001
0.0067542465 -0.093439035 0.55500001
0.0076501057 -0.093607403 0.55600005
0.0085491426 -0.093775764 0.55700004
0.0094513595 -0.093944117 0.55800003
0.010356753 -0.094112471 0.55900002
0.011265327 -0.094280832 0.56
0.012177081 -0.0944492 0.56100005
0.013092011 -0.094617553 0.56200004
0.014010121 -0.094785906 0.56300002
0.014931408 -0.094954267 0.56400001
0.015855875 -0.09512262 0.565
0.016783522 -0.095290989 0.56600004
0.017683106 -0.095290989 0.56600004
0.018582689 -0.095290989 0.56600004
0.019482272 -0.095290989 0.56600004
0.020417864 -0.095459342 0.56700003
0.021319034 -0.095459342 0.56700003
0.022220206 -0.095459342 0.56700003
0.023162156 -0.095627703 0.56800002
0.024064919 -0.095627703 0.56800002
0.02496768 -0.095627703 0.56800002
0.025870439 -0.095627703 0.56800002
0.026773201 -0.095627703 0.56800002
0.027675962 -0.095627703 0.56800002
0.028578725 -0.095627703 0.56800002
0.029481485 -0.095627703 0.56800002
0.030384246 -0.095627703 0.56800002
0.031231925 -0.095459342 0.56700003
0.032189768 -0.095627703 0.56800002
0.033034269 -0.095459342 0.56700003
0.033935443 -0.095459342 0.56700003
0.034836613 -0.095459342 0.56700003
0.035737786 -0.095459342 0.56700003
0.036638957 -0.095459342 0.56700003
0.037540127 -0.095459342 0.56700003
0.0384413 -0.095459342 0.56700003
0.03934247 -0.095459342 0.56700003
0.040243644 -0.095459342 0.56700003
0.041144814 -0.095459342 0.56700003
0.041971833 -0.095290989 0.56600004
0.042871416 -0.095290989 0.56600004
0.043848332 -0.095459342 0.56700003
0.044749506 -0.095459342 0.56700003
0.045650676 -0.095459342 0.56700003
0.046551846 -0.095459342 0.56700003
0.04745302 -0.095459342 0.56700003
0.048439469 -0.095627703 0.56800002
0.049342234 -0.095627703 0.56800002
0.050333451 -0.095796056 0.56900001
0.051237799 -0.095796056 0.56900001
0.052142154 -0.095796056 0.56900001
0.053139735 -0.095964424 0.57000005
0.054045677 -0.095964424 0.57000005
0.055048019 -0.096132778 0.57100004
0.055955552 -0.096132778 0.57100004
0.056962665 -0.096301138 0.57200003
0.057972953 -0.096469492 0.57300001
0.058986425 -0.096637852 0.574
0.059898723 -0.096637852 0.574
0.060916971 -0.096806213 0.57500005
0.062045917 -0.097142927 0.57700002
0.0630721 -0.097311288 0.57800001
0.064322889 -0.097816363 0.58100003
0.065695517 -0.098489799 0.58500004
0.069928087 -0.1033722 0.61400002
0.071019433 -0.10354055 0.61500001
0.072348103 -0.10404564 0.61800003
-0.00468757 -0.092056632 0.55200005
-0.0038102388 -0.092056632 0.55200005
-0.0029382205 -0.092223398 0.55300003
-0.0020593 -0.092223398 0.55300003
-0.0011825135 -0.092390172 0.55400002
-0.00030200358 -0.092390172 0.55400002
0.0005785065 -0.092390172 0.55400002
0.0014590166 -0.092390172 0.55400002
0.0023395268 -0.092390172 0.55400002
0.0032200366 -0.092390172 0.55400002
0.0041079484 -0.092556939 0.55500001
0.0049900478 -0.092556939 0.55500001
0.0058721476 -0.092556939 0.55500001
0.0067664171 -0.092723712 0.55600005
0.0076638646 -0.092890479 0.55700004
0.0085644918 -0.093057245 0.55800003
0.0094682965 -0.093224011 0.55900002
0.01037528 -0.093390778 0.56
0.011285445 -0.093557559 0.56100005
0.012198786 -0.093724325 0.56200004
0.013115305 -0.093891092 0.56300002
0.014035005 -0.094057858 0.56400001
0.014957882 -0.094224624 0.565
0.015883941 -0.094391406 0.56600004
0.016783522 -0.094391406 0.56600004
0.017683106 -0.094391406 0.56600004
0.01861552 -0.094558172 0.56700003
0.019516692 -0.094558172 0.56700003
0.020417864 -0.094558172 0.56700003
0.021319034 -0.094558172 0.56700003
0.022259396 -0.094724938 0.56800002
0.023162156 -0.094724938 0.56800002
0.024064919 -0.094724938 0.56800002
0.02496768 -0.094724938 0.56800002
0.025870439 -0.094724938 0.56800002
0.026773201 -0.094724938 0.56800002
0.027675962 -0.094724938 0.56800002
0.028578725 -0.094724938 0.56800002
0.029481485 -0.094724938 0.56800002
0.030384246 -0.094724938 0.56800002
0.031287007 -0.094724938 0.56800002
0.032189768 -0.094724938 0.56800002
0.033092529 -0.094724938 0.56800002
0.033935443 -0.094558172 0.56700003
0.034836613 -0.094558172 0.56700003
0.035737786 -0.094558172 0.56700003
0.036638957 -0.094558172 0.56700003
0.037540127 -0.094558172 0.56700003
0.0384413 -0.094558172 0.56700003
0.03934247 -0.094558172 0.56700003
0.040243644 -0.094558172 0.56700003
0.041144814 -0.094558172 0.56700003
0.042045984 -0.094558172 0.56700003
0.042947162 -0.094558172 0.56700003
0.043848332 -0.094558172 0.56700003
0.044749506 -0.094558172 0.56700003
0.045650676 -0.094558172 0.56700003
0.046551846 -0.094558172 0.56700003
0.047536708 -0.094724938 0.56800002
0.048439469 -0.094724938 0.56800002
0.049429104 -0.094891705 0.56900001
0.050333451 -0.094891705 0.56900001
0.051237799 -0.094891705 0.56900001
0.052142154 -0.094891705 0.56900001
0.053139735 -0.095058478 0.57000005
0.054045677 -0.095058478 0.57000005
0.055048019 -0.095225252 0.57100004
0.055955552 -0.095225252 0.57100004
0.056962665 -0.095392019 0.57200003
0.057972953 -0.095558785 0.57300001
0.058883663 -0.095558785 0.57300001
0.060003079 -0.095892325 0.57500005
0.061022911 -0.096059091 0.57600003
0.062045917 -0.096225865 0.57700002
0.063181229 -0.096559405 0.57900006
0.064433597 -0.097059704 0.58200002
0.06636931 -0.098560631 0.59100002
0.07021109 -0.10139571 0.60800004
0.071645692 -0.10206279 0.61200005
0.073093019 -0.10272986 0.61600006
-0.0038171413 -0.091344476 0.55300003
-0.0029435337 -0.091509655 0.55400002
-0.0020667475 -0.091674834 0.55500001
-0.001184648 -0.091674834 0.55500001
-0.00030254869 -0.091674834 0.55500001
0.00057955075 -0.091674834 0.55500001
0.0014616501 -0.091674834 0.55500001
0.0023437496 -0.091674834 0.55500001
0.003225849 -0.091674834 0.55500001
0.0041153505 -0.091840021 0.55600005
0.0049990392 -0.091840021 0.55600005
0.0058933087 -0.092005201 0.55700004
0.0067785867 -0.092005201 0.55700004
0.007677624 -0.09217038 0.55800003
0.00857984 -0.092335552 0.55900002
0.0094852345 -0.092500731 0.56
0.010393809 -0.092665918 0.56100005
0.011305561 -0.092831098 0.56200004
0.012220493 -0.092996277 0.56300002
0.013138601 -0.093161456 0.56400001
0.014059889 -0.093326628 0.565
0.014984357 -0.093491815 0.56600004
0.015883941 -0.093491815 0.56600004
0.016813176 -0.093656994 0.56700003
0.017714348 -0.093656994 0.56700003
0.01861552 -0.093656994 0.56700003
0.019551111 -0.093822174 0.56800002
0.020453874 -0.093822174 0.56800002
0.021356633 -0.093822174 0.56800002
0.022259396 -0.093822174 0.56800002
0.023162156 -0.093822174 0.56800002
0.024064919 -0.093822174 0.56800002
0.02496768 -0.093822174 0.56800002
0.025915986 -0.093987353 0.56900001
0.026773201 -0.093822174 0.56800002
0.027675962 -0.093822174 0.56800002
0.028578725 -0.093822174 0.56800002
0.029481485 -0.093822174 0.56800002
0.030384246 -0.093822174 0.56800002
0.031287007 -0.093822174 0.56800002
0.032189768 -0.093822174 0.56800002
0.033092529 -0.093822174 0.56800002
0.033995293 -0.093822174 0.56800002
0.03489805 -0.093822174 0.56800002
0.035737786 -0.093656994 0.56700003
0.036638957 -0.093656994 0.56700003
0.037540127 -0.093656994 0.56700003
0.0384413 -0.093656994 0.56700003
0.03934247 -0.093656994 0.56700003
0.040243644 -0.093656994 0.56700003
0.041144814 -0.093656994 0.56700003
0.042045984 -0.093656994 0.56700003
0.042947162 -0.093656994 0.56700003
0.043848332 -0.093656994 0.56700003
0.044749506 -0.093656994 0.56700003
0.045650676 -0.093656994 0.56700003
0.046633948 -0.093822174 0.56800002
0.047536708 -0.093822174 0.56800002
0.048439469 -0.093822174 0.56800002
0.049429104 -0.093987353 0.56900001
0.050333451 -0.093987353 0.56900001
0.051237799 -0.093987353 0.56900001
0.052233797 -0.09415254 0.57000005
0.053139735 -0.09415254 0.57000005
0.054045677 -0.09415254 0.57000005
0.055048019 -0.094317719 0.57100004
0.055955552 -0.094317719 0.57100004
0.056962665 -0.094482891 0.57200003
0.057972953 -0.094648071 0.57300001
0.058986425 -0.09481325 0.574
0.060003079 -0.094978437 0.57500005
0.061128851 -0.095308796 0.57700002
0.062153447 -0.095473975 0.57800001
0.063290343 -0.095804334 0.58000004
0.064876445 -0.09679541 0.58600003
0.069402732 -0.099273108 0.60100001
0.071060352 -0.10026419 0.60700005
0.072618388 -0.1010901 0.61200005
0.073951818 -0.10158563 0.61500001
-0.0047045541 -0.090629153 0.55400002
-0.0038309463 -0.090792738 0.55500001
-0.0029488469 -0.090792738 0.55500001
-0.0020704716 -0.090956338 0.55600005
-0.0011867827 -0.090956338 0.55600005
-0.00030309387 -0.090956338 0.55600005
0.00058059499 -0.090956338 0.55600005
0.0014669175 -0.09111993 0.55700004
0.0023521958 -0.09111993 0.55700004
0.0032374738 -0.09111993 0.55700004
0.0041227522 -0.09111993 0.55700004
0.0050080302 -0.09111993 0.55700004
0.005903889 -0.091283515 0.55800003
0.0067907562 -0.091283515 0.55800003
0.0076913829 -0.0914471 0.55900002
0.0085951881 -0.091610692 0.56
0.0095021734 -0.091774292 0.56100005
0.010412335 -0.091937877 0.56200004
0.011325677 -0.09210147 0.56300002
0.012242198 -0.092265055 0.56400001
0.013161896 -0.092428647 0.565
0.014084776 -0.092592239 0.56600004
0.014984357 -0.092592239 0.56600004
0.015912004 -0.092755832 0.56700003
0.016813176 -0.092755832 0.56700003
0.017745588 -0.092919417 0.56800002
0.018648351 -0.092919417 0.56800002
0.019551111 -0.092919417 0.56800002
0.020453874 -0.092919417 0.56800002
0.021356633 -0.092919417 0.56800002
0.022259396 -0.092919417 0.56800002
0.023162156 -0.092919417 0.56800002
0.024107285 -0.093083009 0.56900001
0.025011636 -0.093083009 0.56900001
0.025915986 -0.093083009 0.56900001
0.026773201 -0.092919417 0.56800002
0.027724687 -0.093083009 0.56900001
0.028629038 -0.093083009 0.56900001
0.02953339 -0.093083009 0.56900001
0.030384246 -0.092919417 0.56800002
0.031287007 -0.092919417 0.56800002
0.032189768 -0.092919417 0.56800002
0.033092529 -0.092919417 0.56800002
0.033995293 -0.092919417 0.56800002
0.03489805 -0.092919417 0.56800002
0.035800815 -0.092919417 0.56800002
0.036703575 -0.092919417 0.56800002
0.037606332 -0.092919417 0.56800002
0.038509097 -0.092919417 0.56800002
0.039411858 -0.092919417 0.56800002
0.040243644 -0.092755832 0.56700003
0.041144814 -0.092755832 0.56700003
0.042045984 -0.092755832 0.56700003
0.042947162 -0.092755832 0.56700003
0.043925665 -0.092919417 0.56800002
0.044828426 -0.092919417 0.56800002
0.045731187 -0.092919417 0.56800002
0.046633948 -0.092919417 0.56800002
0.047536708 -0.092919417 0.56800002
0.048524749 -0.093083009 0.56900001
0.049429104 -0.093083009 0.56900001
0.050333451 -0.093083009 0.56900001
0.051237799 -0.093083009 0.56900001
0.052233797 -0.093246609 0.57000005
0.053139735 -0.093246609 0.57000005
0.054140493 -0.093410194 0.57100004
0.055048019 -0.093410194 0.57100004
0.055955552 -0.093410194 0.57100004
0.056962665 -0.093573779 0.57200003
0.057972953 -0.093737371 0.57300001
0.058986425 -0.093900956 0.574
0.060107432 -0.094228148 0.57600003
0.061128851 -0.094391733 0.57700002
0.062260982 -0.094718918 0.57900006
0.063399464 -0.095046096 0.58100003
0.064876445 -0.09586405 0.58600003
0.06636931 -0.096682005 0.59100002
0.067764193 -0.097336367 0.59500003
0.069171779 -0.097990729 0.59900004
0.070592083 -0.098645091 0.60300004
0.072143763 -0.099463046 0.60800004
0.073591083 -0.10011741 0.61200005
0.074929282 -0.10060817 0.61500001
-0.0038378492 -0.090072647 0.55600005
-0.0029594735 -0.090234645 0.55700004
-0.0020741953 -0.090234645 0.55700004
-0.0011889172 -0.090234645 0.55700004
-0.0003041841 -0.090396643 0.55800003
0.00058268348 -0.090396643 0.55800003
0.001469551 -0.090396643 0.55800003
0.0023564186 -0.090396643 0.55800003
0.0032432862 -0.090396643 0.55800003
0.0041301539 -0.090396643 0.55800003
0.0050260122 -0.090558641 0.55900002
0.0059144692 -0.090558641 0.55900002
0.0068150959 -0.090720646 0.56
0.0077051418 -0.090720646 0.56
0.0086105373 -0.090882652 0.56100005
0.0095191114 -0.091044649 0.56200004
0.010412335 -0.091044649 0.56200004
0.011345793 -0.091368645 0.56400001
0.012263903 -0.091530651 0.565
0.013185193 -0.091692656 0.56600004
0.014084776 -0.091692656 0.56600004
0.015010831 -0.091854654 0.56700003
0.015940066 -0.092016652 0.56800002
0.016842829 -0.092016652 0.56800002
0.017745588 -0.092016652 0.56800002
0.018681182 -0.092178658 0.56900001
0.019585533 -0.092178658 0.56900001
0.020489883 -0.092178658 0.56900001
0.021394232 -0.092178658 0.56900001
0.022298584 -0.092178658 0.56900001
0.023202935 -0.092178658 0.56900001
0.024107285 -0.092178658 0.56900001
0.025011636 -0.092178658 0.56900001
0.025915986 -0.092178658 0.56900001
0.026820336 -0.092178658 0.56900001
0.027724687 -0.092178658 0.56900001
0.028629038 -0.092178658 0.56900001
0.02953339 -0.092178658 0.56900001
0.030384246 -0.092016652 0.56800002
0.031287007 -0.092016652 0.56800002
0.032189768 -0.092016652 0.56800002
0.033092529 -0.092016652 0.56800002
0.033995293 -0.092016652 0.56800002
0.03489805 -0.092016652 0.56800002
0.035800815 -0.092016652 0.56800002
0.036703575 -0.092016652 0.56800002
0.037606332 -0.092016652 0.56800002
0.038509097 -0.092016652 0.56800002
0.039411858 -0.092016652 0.56800002
0.040314622 -0.092016652 0.56800002
0.041217379 -0.092016652 0.56800002
0.04212014 -0.092016652 0.56800002
0.043022905 -0.092016652 0.56800002
0.043925665 -0.092016652 0.56800002
0.044828426 -0.092016652 0.56800002
0.045731187 -0.092016652 0.56800002
0.046633948 -0.092016652 0.56800002
0.047536708 -0.092016652 0.56800002
0.048524749 -0.092178658 0.56900001
0.049429104 -0.092178658 0.56900001
0.050333451 -0.092178658 0.56900001
0.051327854 -0.092340663 0.57000005
0.052233797 -0.092340663 0.57000005
0.053139735 -0.092340663 0.57000005
0.054140493 -0.092502661 0.57100004
0.055048019 -0.092502661 0.57100004
0.055955552 -0.092502661 0.57100004
0.056962665 -0.092664659 0.57200003
0.058074128 -0.092988662 0.574
0.059089195 -0.093150668 0.57500005
0.060107432 -0.093312666 0.57600003
0.061234795 -0.093636662 0.57800001
0.062368512 -0.093960673 0.58000004
0.063508585 -0.094284669 0.58200002
0.064987153 -0.095094673 0.58700001
0.066257015 -0.095580682 0.59000003
0.067536414 -0.096066691 0.59300005
0.068825342 -0.096552685 0.59600002
0.070240878 -0.097200692 0.60000002
0.071787782 -0.098010696 0.60500002
0.073110096 -0.098496705 0.60800004
0.074563779 -0.099144712 0.61200005
0.07578332 -0.099468708 0.61400002
-0.0047385218 -0.089509778 0.55800003
-0.0038585567 -0.089670181 0.55900002
-0.0029700999 -0.089670181 0.55900002
-0.0020816431 -0.089670181 0.55900002
-0.001193186 -0.089670181 0.55900002
-0.00030472924 -0.089670181 0.55900002
0.00058372767 -0.089670181 0.55900002
0.0014748181 -0.089830592 0.56
0.0023648646 -0.089830592 0.56
0.0032549107 -0.089830592 0.56
0.0041449568 -0.089830592 0.56
0.0050350027 -0.089830592 0.56
0.0059356303 -0.089991011 0.56100005
0.006827266 -0.089991011 0.56100005
0.0077326605 -0.090151422 0.56200004
0.0086258855 -0.090151422 0.56200004
0.0095360484 -0.090311833 0.56300002
0.01044939 -0.090472244 0.56400001
0.01136591 -0.090632655 0.565
0.012285611 -0.090793073 0.56600004
0.013185193 -0.090793073 0.56600004
0.01410966 -0.090953484 0.56700003
0.015037305 -0.091113888 0.56800002
0.015940066 -0.091113888 0.56800002
0.016872481 -0.091274299 0.56900001
0.01777683 -0.091274299 0.56900001
0.018681182 -0.091274299 0.56900001
0.019585533 -0.091274299 0.56900001
0.020489883 -0.091274299 0.56900001
0.021394232 -0.091274299 0.56900001
0.022298584 -0.091274299 0.56900001
0.023202935 -0.091274299 0.56900001
0.024107285 -0.091274299 0.56900001
0.025011636 -0.091274299 0.56900001
0.025915986 -0.091274299 0.56900001
0.026820336 -0.091274299 0.56900001
0.027724687 -0.091274299 0.56900001
0.028629038 -0.091274299 0.56900001
0.02953339 -0.091274299 0.56900001
0.030384246 -0.091113888 0.56800002
0.031287007 -0.091113888 0.56800002
0.032189768 -0.091113888 0.56800002
0.033150792 -0.091274299 0.56900001
0.034055144 -0.091274299 0.56900001
0.034959491 -0.091274299 0.56900001
0.035863843 -0.091274299 0.56900001
0.036768194 -0.091274299 0.56900001
0.037672542 -0.091274299 0.56900001
0.038509097 -0.091113888 0.56800002
0.039411858 -0.091113888 0.56800002
0.040314622 -0.091113888 0.56800002
0.041217379 -0.091113888 0.56800002
0.04212014 -0.091113888 0.56800002
0.043022905 -0.091113888 0.56800002
0.043925665 -0.091113888 0.56800002
0.044828426 -0.091113888 0.56800002
0.045731187 -0.091113888 0.56800002
0.046633948 -0.091113888 0.56800002
0.047620401 -0.091274299 0.56900001
0.048524749 -0.091274299 0.56900001
0.049429104 -0.091274299 0.56900001
0.050333451 -0.091274299 0.56900001
0.051327854 -0.091434717 0.57000005
0.052233797 -0.091434717 0.57000005
0.053139735 -0.091434717 0.57000005
0.054140493 -0.091595128 0.57100004
0.055048019 -0.091595128 0.57100004
0.055955552 -0.091595128 0.57100004
0.057062246 -0.09191595 0.57300001
0.058074128 -0.092076361 0.574
0.059089195 -0.09223678 0.57500005
0.060211785 -0.092557594 0.57700002
0.061340742 -0.092878424 0.57900006
0.062476043 -0.093199246 0.58100003
0.063617706 -0.093520068 0.583
0.064987153 -0.094161712 0.58700001
0.066144712 -0.094482541 0.58900005
0.067422517 -0.094963774 0.59200001
0.068594381 -0.095284604 0.59400004
0.070006743 -0.095926248 0.59800005
0.071431816 -0.096567899 0.60200006
0.072749354 -0.097049125 0.60500002
0.074198268 -0.097690776 0.60900003
0.075536467 -0.098172016 0.61200005
-0.0029754131 -0.088940553 0.56
-0.0020853668 -0.088940553 0.56
-0.0011953205 -0.088940553 0.56
-0.00030581953 -0.089099385 0.56100005
0.00058581622 -0.089099385 0.56100005
0.0014774519 -0.089099385 0.56100005
0.0023690877 -0.089099385 0.56100005
0.0032607233 -0.089099385 0.56100005
0.0041597607 -0.089258201 0.56200004
0.0050529852 -0.089258201 0.56200004
0.0059462111 -0.089258201 0.56200004
0.0068516056 -0.089417025 0.56300002
0.0077601788 -0.089575842 0.56400001
0.0086565819 -0.089575842 0.56400001
0.0095699243 -0.089734666 0.565
0.010467917 -0.089734666 0.565
0.011386028 -0.089893498 0.56600004
0.012285611 -0.089893498 0.56600004
0.013208488 -0.090052314 0.56700003
0.014134544 -0.090211138 0.56800002
0.015037305 -0.090211138 0.56800002
0.015968129 -0.090369955 0.56900001
0.016872481 -0.090369955 0.56900001
0.01777683 -0.090369955 0.56900001
0.018681182 -0.090369955 0.56900001
0.019585533 -0.090369955 0.56900001
0.020489883 -0.090369955 0.56900001
0.021394232 -0.090369955 0.56900001
0.022298584 -0.090369955 0.56900001
0.023202935 -0.090369955 0.56900001
0.024107285 -0.090369955 0.56900001
0.025011636 -0.090369955 0.56900001
0.025915986 -0.090369955 0.56900001
0.026820336 -0.090369955 0.56900001
0.027724687 -0.090369955 0.56900001
0.028629038 -0.090369955 0.56900001
0.02953339 -0.090369955 0.56900001
0.030437738 -0.090369955 0.56900001
0.031342089 -0.090369955 0.56900001
0.032246441 -0.090369955 0.56900001
0.033150792 -0.090369955 0.56900001
0.034055144 -0.090369955 0.56900001
0.034959491 -0.090369955 0.56900001
0.035863843 -0.090369955 0.56900001
0.036768194 -0.090369955 0.56900001
0.037672542 -0.090369955 0.56900001
0.038576894 -0.090369955 0.56900001
0.039481245 -0.090369955 0.56900001
0.040314622 -0.090211138 0.56800002
0.041217379 -0.090211138 0.56800002
0.04212014 -0.090211138 0.56800002
0.043022905 -0.090211138 0.56800002
0.043925665 -0.090211138 0.56800002
0.04490735 -0.090369955 0.56900001
0.045731187 -0.090211138 0.56800002
0.046633948 -0.090211138 0.56800002
0.047620401 -0.090369955 0.56900001
0.048524749 -0.090369955 0.56900001
0.049429104 -0.090369955 0.56900001
0.050333451 -0.090369955 0.56900001
0.051327854 -0.090528786 0.57000005
0.052233797 -0.090528786 0.57000005
0.053139735 -0.090528786 0.57000005
0.054140493 -0.09068761 0.57100004
0.055048019 -0.09068761 0.57100004
0.056053545 -0.090846427 0.57200003
0.057062246 -0.091005251 0.57300001
0.058074128 -0.091164067 0.574
0.059191957 -0.091481715 0.57600003
0.060211785 -0.091640539 0.57700002
0.061446682 -0.092117012 0.58000004
0.062476043 -0.092275828 0.58100003
0.063726835 -0.0927523 0.58400005
0.064876445 -0.093069941 0.58600003
0.06603241 -0.093387581 0.588
0.067308635 -0.093864053 0.59100002
0.068478905 -0.094181702 0.59300005
0.069655538 -0.094499342 0.59500003
0.071075842 -0.095134631 0.59900004
0.072508864 -0.095769927 0.60300004
0.073832758 -0.096246384 0.60600001
0.075166188 -0.096722856 0.60900003
0.076509163 -0.097199328 0.61200005
-0.0020928148 -0.088364974 0.56200004
-0.0011995897 -0.088364974 0.56200004
-0.00030636464 -0.088364974 0.56200004
0.00058790465 -0.088522211 0.56300002
0.001482719 -0.088522211 0.56300002
0.0023775336 -0.088522211 0.56300002
0.0032723479 -0.088522211 0.56300002
0.004174564 -0.08867944 0.56400001
0.0050709671 -0.08867944 0.56400001
0.0059673716 -0.08867944 0.56400001
0.0068637752 -0.08867944 0.56400001
0.0077739377 -0.08883667 0.565
0.0086872801 -0.088993907 0.56600004
0.0095868632 -0.088993907 0.56600004
0.010486444 -0.088993907 0.56600004
0.011406144 -0.089151144 0.56700003
0.012307316 -0.089151144 0.56700003
0.013231783 -0.089308374 0.56800002
0.014134544 -0.089308374 0.56800002
0.015063778 -0.089465603 0.56900001
0.015968129 -0.089465603 0.56900001
0.016872481 -0.089465603 0.56900001
0.01777683 -0.089465603 0.56900001
0.018681182 -0.089465603 0.56900001
0.019585533 -0.089465603 0.56900001
0.020489883 -0.089465603 0.56900001
0.021394232 -0.089465603 0.56900001
0.022298584 -0.089465603 0.56900001
0.023202935 -0.089465603 0.56900001
0.024107285 -0.089465603 0.56900001
0.025011636 -0.089465603 0.56900001
0.025915986 -0.089465603 0.56900001
0.026820336 -0.089465603 0.56900001
0.027724687 -0.089465603 0.56900001
0.028629038 -0.089465603 0.56900001
0.02953339 -0.089465603 0.56900001
0.030437738 -0.089465603 0.56900001
0.031342089 -0.089465603 0.56900001
0.032246441 -0.089465603 0.56900001
0.033150792 -0.089465603 0.56900001
0.034055144 -0.089465603 0.56900001
0.034959491 -0.089465603 0.56900001
0.035863843 -0.089465603 0.56900001
0.036768194 -0.089465603 0.56900001
0.037672542 -0.089465603 0.56900001
0.038576894 -0.089465603 0.56900001
0.039481245 -0.089465603 0.56900001
0.040385596 -0.089465603 0.56900001
0.041217379 -0.089308374 0.56800002
0.04212014 -0.089308374 0.56800002
0.043098647 -0.089465603 0.56900001
0.044002995 -0.089465603 0.56900001
0.04490735 -0.089465603 0.56900001
0.045811698 -0.089465603 0.56900001
0.046716046 -0.089465603 0.56900001
0.047620401 -0.089465603 0.56900001
0.048524749 -0.089465603 0.56900001
0.049429104 -0.089465603 0.56900001
0.050421916 -0.08962284 0.57000005
0.051327854 -0.08962284 0.57000005
0.052233797 -0.08962284 0.57000005
0.05323296 -0.089780077 0.57100004
0.054140493 -0.089780077 0.57100004
0.055048019 -0.089780077 0.57100004
0.056053545 -0.089937307 0.57200003
0.057062246 -0.090094537 0.57300001
0.058175307 -0.090409011 0.57500005
0.059294719 -0.09072347 0.57700002
0.060316134 -0.090880699 0.57800001
0.061446682 -0.091195174 0.58000004
0.062583573 -0.091509633 0.58200002
0.063835949 -0.091981336 0.58500004
0.064987153 -0.092295796 0.58700001
0.06603241 -0.092453033 0.588
0.067194745 -0.092767499 0.59000003
0.068363421 -0.093081966 0.59200001
0.069538467 -0.093396433 0.59400004
0.070838526 -0.093868129 0.597
0.072268359 -0.094497062 0.60100001
0.073589087 -0.094968766 0.60400003
0.074919343 -0.09544047 0.60700005
0.076259129 -0.095912158 0.61000001
-0.0021002623 -0.087783031 0.56400001
-0.0012038586 -0.087783031 0.56400001
-0.0003074549 -0.087783031 0.56400001
0.00058894884 -0.087783031 0.56400001
0.0014853525 -0.087783031 0.56400001
0.0023859793 -0.087938674 0.565
0.0032839724 -0.087938674 0.565
0.0041893674 -0.088094324 0.56600004
0.0050889496 -0.088094324 0.56600004
0.0059885327 -0.088094324 0.56600004
0.0068881153 -0.088094324 0.56600004
0.0078014564 -0.088249967 0.56700003
0.0087026283 -0.088249967 0.56700003
0.0096038003 -0.088249967 0.56700003
0.010523499 -0.088405609 0.56800002
0.011426261 -0.088405609 0.56800002
0.012329022 -0.088405609 0.56800002
0.013255077 -0.088561252 0.56900001
0.014159429 -0.088561252 0.56900001
0.015063778 -0.088561252 0.56900001
0.015968129 -0.088561252 0.56900001
0.016872481 -0.088561252 0.56900001
0.01777683 -0.088561252 0.56900001
0.018681182 -0.088561252 0.56900001
0.019619955 -0.088716902 0.57000005
0.020525895 -0.088716902 0.57000005
0.021431834 -0.088716902 0.57000005
0.022337774 -0.088716902 0.57000005
0.023243714 -0.088716902 0.57000005
0.024149654 -0.088716902 0.57000005
0.025055595 -0.088716902 0.57000005
0.025915986 -0.088561252 0.56900001
0.026820336 -0.088561252 0.56900001
0.027724687 -0.088561252 0.56900001
0.028629038 -0.088561252 0.56900001
0.02953339 -0.088561252 0.56900001
0.030437738 -0.088561252 0.56900001
0.031342089 -0.088561252 0.56900001
0.032246441 -0.088561252 0.56900001
0.033150792 -0.088561252 0.56900001
0.034055144 -0.088561252 0.56900001
0.034959491 -0.088561252 0.56900001
0.035863843 -0.088561252 0.56900001
0.036768194 -0.088561252 0.56900001
0.037672542 -0.088561252 0.56900001
0.038576894 -0.088561252 0.56900001
0.039481245 -0.088561252 0.56900001
0.040385596 -0.088561252 0.56900001
0.041289944 -0.088561252 0.56900001
0.042194296 -0.088561252 0.56900001
0.043022905 -0.088405609 0.56800002
0.044002995 -0.088561252 0.56900001
0.04490735 -0.088561252 0.56900001
0.045811698 -0.088561252 0.56900001
0.046716046 -0.088561252 0.56900001
0.047620401 -0.088561252 0.56900001
0.048524749 -0.088561252 0.56900001
0.049429104 -0.088561252 0.56900001
0.050421916 -0.088716902 0.57000005
0.051327854 -0.088716902 0.57000005
0.052325431 -0.088872544 0.57100004
0.05323296 -0.088872544 0.57100004
0.054140493 -0.088872544 0.57100004
0.055144425 -0.089028187 0.57200003
0.056151539 -0.08918383 0.57300001
0.05716183 -0.089339465 0.574
0.058175307 -0.089495115 0.57500005
0.059294719 -0.0898064 0.57700002
0.060420495 -0.090117693 0.57900006
0.061446682 -0.090273336 0.58000004
0.062691107 -0.090740263 0.583
0.063835949 -0.091051556 0.58500004
0.064987153 -0.091362834 0.58700001
0.066144712 -0.091674127 0.58900005
0.067308635 -0.091985412 0.59100002
0.068478905 -0.092296705 0.59300005
0.069538467 -0.092452347 0.59400004
0.070838526 -0.092919275 0.597
0.072148114 -0.093386203 0.60000002
0.073467255 -0.093853138 0.60300004
0.074795909 -0.094320066 0.60600001
0.076134115 -0.094787002 0.60900003
-0.0030019793 -0.087040678 0.565
-0.0021077101 -0.087194741 0.56600004
-0.0012059931 -0.087040678 0.565
-0.00030854519 -0.087194741 0.56600004
0.00059103739 -0.087194741 0.56600004
0.0014906198 -0.087194741 0.56600004
0.0023944254 -0.087348789 0.56700003
0.0032955972 -0.087348789 0.56700003
0.0041967691 -0.087348789 0.56700003
0.0051069316 -0.087502845 0.56800002
0.0060096933 -0.087502845 0.56800002
0.0069124545 -0.087502845 0.56800002
0.0078152157 -0.087502845 0.56800002
0.0087179765 -0.087502845 0.56800002
0.0096207382 -0.087502845 0.56800002
0.010542026 -0.0876569 0.56900001
0.011446377 -0.0876569 0.56900001
0.012350728 -0.0876569 0.56900001
0.013255077 -0.0876569 0.56900001
0.014159429 -0.0876569 0.56900001
0.015063778 -0.0876569 0.56900001
0.015968129 -0.0876569 0.56900001
0.016902136 -0.087810956 0.57000005
0.017808074 -0.087810956 0.57000005
0.018714014 -0.087810956 0.57000005
0.019619955 -0.087810956 0.57000005
0.020525895 -0.087810956 0.57000005
0.021431834 -0.087810956 0.57000005
0.022337774 -0.087810956 0.57000005
0.023243714 -0.087810956 0.57000005
0.024149654 -0.087810956 0.57000005
0.025055595 -0.087810956 0.57000005
0.025961533 -0.087810956 0.57000005
0.026867473 -0.087810956 0.57000005
0.027773416 -0.087810956 0.57000005
0.028679356 -0.087810956 0.57000005
0.029585296 -0.087810956 0.57000005
0.030437738 -0.0876569 0.56900001
0.031342089 -0.0876569 0.56900001
0.032246441 -0.0876569 0.56900001
0.033150792 -0.0876569 0.56900001
0.034055144 -0.0876569 0.56900001
0.035020933 -0.087810956 0.57000005
0.035863843 -0.0876569 0.56900001
0.036768194 -0.0876569 0.56900001
0.037672542 -0.0876569 0.56900001
0.038576894 -0.0876569 0.56900001
0.039481245 -0.0876569 0.56900001
0.040385596 -0.0876569 0.56900001
0.041217379 -0.087502845 0.56800002
0.04212014 -0.087502845 0.56800002
0.043098647 -0.0876569 0.56900001
0.044002995 -0.0876569 0.56900001
0.04490735 -0.0876569 0.56900001
0.045811698 -0.0876569 0.56900001
0.046716046 -0.0876569 0.56900001
0.047620401 -0.0876569 0.56900001
0.048524749 -0.0876569 0.56900001
0.049515978 -0.087810956 0.57000005
0.050421916 -0.087810956 0.57000005
0.051327854 -0.087810956 0.57000005
0.052325431 -0.087965012 0.57100004
0.05323296 -0.087965012 0.57100004
0.054140493 -0.087965012 0.57100004
0.055144425 -0.08811906 0.57200003
0.056151539 -0.088273115 0.57300001
0.05716183 -0.088427171 0.574
0.058276478 -0.088735282 0.57600003
0.059294719 -0.088889331 0.57700002
0.060420495 -0.089197449 0.57900006
0.061552621 -0.089505553 0.58100003
0.062691107 -0.089813657 0.583
0.06394507 -0.090275824 0.58600003
0.065097861 -0.090583928 0.588
0.066144712 -0.090737991 0.58900005
0.067308635 -0.091046095 0.59100002
0.068478905 -0.091354206 0.59300005
0.069538467 -0.091508262 0.59400004
0.070838526 -0.091970414 0.597
0.072148114 -0.092432581 0.60000002
0.073467255 -0.092894748 0.60300004
0.074795909 -0.093356907 0.60600001
-0.0021151579 -0.086600088 0.56800002
-0.0012123967 -0.086600088 0.56800002
-0.00030963545 -0.086600088 0.56800002
0.00059312582 -0.086600088 0.56800002
0.0014958869 -0.086600088 0.56800002
0.0024028714 -0.086752549 0.56900001
0.0033072217 -0.086752549 0.56900001
0.0042115725 -0.086752549 0.56900001
0.0051159225 -0.086752549 0.56900001
0.0060202735 -0.086752549 0.56900001
0.0069246241 -0.086752549 0.56900001
0.0078289742 -0.086752549 0.56900001
0.0087333247 -0.086752549 0.56900001
0.0096376762 -0.086752549 0.56900001
0.010542026 -0.086752549 0.56900001
0.011446377 -0.086752549 0.56900001
0.012350728 -0.086752549 0.56900001
0.013278374 -0.086905025 0.57000005
0.014184315 -0.086905025 0.57000005
0.015090254 -0.086905025 0.57000005
0.015996195 -0.086905025 0.57000005
0.016902136 -0.086905025 0.57000005
0.017808074 -0.086905025 0.57000005
0.018714014 -0.086905025 0.57000005
0.019619955 -0.086905025 0.57000005
0.020525895 -0.086905025 0.57000005
0.021431834 -0.086905025 0.57000005
0.022337774 -0.086905025 0.57000005
0.023243714 -0.086905025 0.57000005
0.024149654 -0.086905025 0.57000005
0.025055595 -0.086905025 0.57000005
0.025961533 -0.086905025 0.57000005
0.026867473 -0.086905025 0.57000005
0.027773416 -0.086905025 0.57000005
0.028679356 -0.086905025 0.57000005
0.029585296 -0.086905025 0.57000005
0.030491235 -0.086905025 0.57000005
0.031397175 -0.086905025 0.57000005
0.032303113 -0.086905025 0.57000005
0.033209056 -0.086905025 0.57000005
0.034114994 -0.086905025 0.57000005
0.035020933 -0.086905025 0.57000005
0.035863843 -0.086752549 0.56900001
0.036768194 -0.086752549 0.56900001
0.037672542 -0.086752549 0.56900001
0.038576894 -0.086752549 0.56900001
0.039481245 -0.086752549 0.56900001
0.040385596 -0.086752549 0.56900001
0.041289944 -0.086752549 0.56900001
0.042194296 -0.086752549 0.56900001
0.043098647 -0.086752549 0.56900001
0.044002995 -0.086752549 0.56900001
0.04490735 -0.086752549 0.56900001
0.045811698 -0.086752549 0.56900001
0.046716046 -0.086752549 0.56900001
0.047620401 -0.086752549 0.56900001
0.048524749 -0.086752549 0.56900001
0.049515978 -0.086905025 0.57000005
0.050421916 -0.086905025 0.57000005
0.051417902 -0.087057486 0.57100004
0.052325431 -0.087057486 0.57100004
0.05323296 -0.087057486 0.57100004
0.054235309 -0.087209947 0.57200003
0.055144425 -0.087209947 0.57200003
0.056151539 -0.087362416 0.57300001
0.057261422 -0.087667346 0.57500005
0.058276478 -0.087819815 0.57600003
0.059397481 -0.088124737 0.57800001
0.060524847 -0.088429675 0.58000004
0.061658565 -0.088734597 0.58200002
0.062798642 -0.089039534 0.58400005
0.06394507 -0.089344457 0.58600003
0.065097861 -0.089649387 0.588
0.066257015 -0.089954324 0.59000003
0.067308635 -0.090106785 0.59100002
0.068478905 -0.090411715 0.59300005
0.069655538 -0.090716645 0.59500003
0.070838526 -0.091021568 0.597
0.072148114 -0.091478966 0.60000002
0.073467255 -0.091936365 0.60300004
0.074795909 -0.092393756 0.60600001
-0.0021263296 -0.086149953 0.57100004
-0.0012188002 -0.086149953 0.57100004
-0.00031127085 -0.086149953 0.57100004
0.00059521431 -0.085999079 0.57000005
0.0015011543 -0.085999079 0.57000005
0.0024070945 -0.085999079 0.57000005
0.0033130343 -0.085999079 0.57000005
0.0042189746 -0.085999079 0.57000005
0.005124914 -0.085999079 0.57000005
0.0060308548 -0.085999079 0.57000005
0.0069489642 -0.086149953 0.57100004
0.0078427345 -0.085999079 0.57000005
0.0087486738 -0.085999079 0.57000005
0.0096546151 -0.085999079 0.57000005
0.010560554 -0.085999079 0.57000005
0.011466495 -0.085999079 0.57000005
0.012372435 -0.085999079 0.57000005
0.013278374 -0.085999079 0.57000005
0.014184315 -0.085999079 0.57000005
0.015090254 -0.085999079 0.57000005
0.016024258 -0.086149953 0.57100004
0.016931787 -0.086149953 0.57100004
0.017839316 -0.086149953 0.57100004
0.018746845 -0.086149953 0.57100004
0.019654376 -0.086149953 0.57100004
0.020561906 -0.086149953 0.57100004
0.021469433 -0.086149953 0.57100004
0.022376962 -0.086149953 0.57100004
0.023284493 -0.086149953 0.57100004
0.024192022 -0.086149953 0.57100004
0.025099553 -0.086149953 0.57100004
0.02600708 -0.086149953 0.57100004
0.02691461 -0.086149953 0.57100004
0.027822139 -0.086149953 0.57100004
0.02872967 -0.086149953 0.57100004
0.029585296 -0.085999079 0.57000005
0.030491235 -0.085999079 0.57000005
0.031397175 -0.085999079 0.57000005
0.032303113 -0.085999079 0.57000005
0.033209056 -0.085999079 0.57000005
0.034114994 -0.085999079 0.57000005
0.034959491 -0.085848197 0.56900001
0.035863843 -0.085848197 0.56900001
0.036768194 -0.085848197 0.56900001
0.037672542 -0.085848197 0.56900001
0.038576894 -0.085848197 0.56900001
0.039481245 -0.085848197 0.56900001
0.040385596 -0.085848197 0.56900001
0.041289944 -0.085848197 0.56900001
0.042194296 -0.085848197 0.56900001
0.043098647 -0.085848197 0.56900001
0.044002995 -0.085848197 0.56900001
0.04490735 -0.085848197 0.56900001
0.045811698 -0.085848197 0.56900001
0.046716046 -0.085848197 0.56900001
0.047620401 -0.085848197 0.56900001
0.048610035 -0.085999079 0.57000005
0.049515978 -0.085999079 0.57000005
0.050421916 -0.085999079 0.57000005
0.051417902 -0.086149953 0.57100004
0.052325431 -0.086149953 0.57100004
0.053326186 -0.086300828 0.57200003
0.054235309 -0.086300828 0.57200003
0.055240829 -0.086451702 0.57300001
0.056249537 -0.086602576 0.574
0.057261422 -0.086753458 0.57500005
0.058377653 -0.087055206 0.57700002
0.059500251 -0.087356962 0.57900006
0.060524847 -0.087507837 0.58000004
0.061764505 -0.087960459 0.583
0.062906176 -0.088262215 0.58500004
0.064054191 -0.088563964 0.58700001
0.065097861 -0.088714831 0.588
0.066257015 -0.089016594 0.59000003
0.067422517 -0.089318335 0.59200001
0.068478905 -0.089469217 0.59300005
0.069655538 -0.089770965 0.59500003
0.070838526 -0.090072714 0.597
0.072148114 -0.090525344 0.60000002
0.073345415 -0.0908271 0.60200006
0.07467249 -0.091279723 0.60500002
-0.00031236111 -0.085540995 0.57300001
0.00059730274 -0.085391708 0.57200003
0.0015037878 -0.08524242 0.57100004
0.0024113173 -0.08524242 0.57100004
0.0033188467 -0.08524242 0.57100004
0.0042263763 -0.08524242 0.57100004
0.005133905 -0.08524242 0.57100004
0.0060414351 -0.08524242 0.57100004
0.0069489642 -0.08524242 0.57100004
0.0078564938 -0.08524242 0.57100004
0.008764023 -0.08524242 0.57100004
0.0096715521 -0.08524242 0.57100004
0.010579081 -0.08524242 0.57100004
0.011486611 -0.08524242 0.57100004
0.01239414 -0.08524242 0.57100004
0.01330167 -0.08524242 0.57100004
0.014209199 -0.08524242 0.57100004
0.015116728 -0.08524242 0.57100004
0.016024258 -0.08524242 0.57100004
0.016931787 -0.08524242 0.57100004
0.017839316 -0.08524242 0.57100004
0.018746845 -0.08524242 0.57100004
0.019654376 -0.08524242 0.57100004
0.020561906 -0.08524242 0.57100004
0.021469433 -0.08524242 0.57100004
0.022376962 -0.08524242 0.57100004
0.023284493 -0.08524242 0.57100004
0.024192022 -0.08524242 0.57100004
0.025099553 -0.08524242 0.57100004
0.02600708 -0.08524242 0.57100004
0.02691461 -0.08524242 0.57100004
0.027822139 -0.08524242 0.57100004
0.02872967 -0.08524242 0.57100004
0.029637199 -0.08524242 0.57100004
0.030544726 -0.08524242 0.57100004
0.031452257 -0.08524242 0.57100004
0.032303113 -0.085093141 0.57000005
0.033209056 -0.085093141 0.57000005
0.034114994 -0.085093141 0.57000005
0.034959491 -0.084943846 0.56900001
0.035863843 -0.084943846 0.56900001
0.036768194 -0.084943846 0.56900001
0.037672542 -0.084943846 0.56900001
0.038576894 -0.084943846 0.56900001
0.039481245 -0.084943846 0.56900001
0.040385596 -0.084943846 0.56900001
0.041289944 -0.084943846 0.56900001
0.042194296 -0.084943846 0.56900001
0.043098647 -0.084943846 0.56900001
0.044002995 -0.084943846 0.56900001
0.04490735 -0.084943846 0.56900001
0.045811698 -0.084943846 0.56900001
0.046716046 -0.084943846 0.56900001
0.047620401 -0.084943846 0.56900001
0.048610035 -0.085093141 0.57000005
0.049515978 -0.085093141 0.57000005
0.050510373 -0.08524242 0.57100004
0.051417902 -0.08524242 0.57100004
0.05241707 -0.085391708 0.57200003
0.053326186 -0.085391708 0.57200003
0.054330125 -0.085540995 0.57300001
0.055337235 -0.085690275 0.574
0.056347534 -0.08583957 0.57500005
0.057361003 -0.085988857 0.57600003
0.058478825 -0.086287424 0.57800001
0.059603013 -0.086585999 0.58000004
0.060629196 -0.086735286 0.58100003
0.061764505 -0.087033853 0.583
0.062906176 -0.087332428 0.58500004
0.064054191 -0.087631002 0.58700001
0.065208577 -0.087929577 0.58900005
0.066257015 -0.088078864 0.59000003
0.067422517 -0.088377431 0.59200001
0.068478905 -0.088526726 0.59300005
0.069655538 -0.088825293 0.59500003
0.070838526 -0.08912386 0.597
0.072148114 -0.089571722 0.60000002
0.073345415 -0.089870296 0.60200006
0.07467249 -0.090318151 0.60500002
-0.0041001481 -0.087731928 0.59400004
0.00059939118 -0.084777988 0.574
0.001509055 -0.084630288 0.57300001
0.0024155404 -0.084482595 0.57200003
0.0033246588 -0.084482595 0.57200003
0.0042337775 -0.084482595 0.57200003
0.005142896 -0.084482595 0.57200003
0.0060520153 -0.084482595 0.57200003
0.0069611338 -0.084482595 0.57200003
0.0078564938 -0.084334902 0.57100004
0.008764023 -0.084334902 0.57100004
0.0096715521 -0.084334902 0.57100004
0.010579081 -0.084334902 0.57100004
0.011486611 -0.084334902 0.57100004
0.01239414 -0.084334902 0.57100004
0.01330167 -0.084334902 0.57100004
0.014209199 -0.084334902 0.57100004
0.015143202 -0.084482595 0.57200003
0.016052321 -0.084482595 0.57200003
0.01696144 -0.084482595 0.57200003
0.017870558 -0.084482595 0.57200003
0.018779676 -0.084482595 0.57200003
0.019688796 -0.084482595 0.57200003
0.020597916 -0.084482595 0.57200003
0.021507032 -0.084482595 0.57200003
0.022416152 -0.084482595 0.57200003
0.02332527 -0.084482595 0.57200003
0.02423439 -0.084482595 0.57200003
0.02514351 -0.084482595 0.57200003
0.026052626 -0.084482595 0.57200003
0.026961746 -0.084482595 0.57200003
0.027870864 -0.084482595 0.57200003
0.028779984 -0.084482595 0.57200003
0.029637199 -0.084334902 0.57100004
0.030544726 -0.084334902 0.57100004
0.031452257 -0.084334902 0.57100004
0.032303113 -0.084187202 0.57000005
0.033209056 -0.084187202 0.57000005
0.034114994 -0.084187202 0.57000005
0.035020933 -0.084187202 0.57000005
0.035863843 -0.084039502 0.56900001
0.036768194 -0.084039502 0.56900001
0.037672542 -0.084039502 0.56900001
0.038576894 -0.084039502 0.56900001
0.039481245 -0.084039502 0.56900001
0.040385596 -0.084039502 0.56900001
0.041289944 -0.084039502 0.56900001
0.042194296 -0.084039502 0.56900001
0.043098647 -0.084039502 0.56900001
0.044002995 -0.084039502 0.56900001
0.04490735 -0.084039502 0.56900001
0.045811698 -0.084039502 0.56900001
0.046716046 -0.084039502 0.56900001
0.047620401 -0.084039502 0.56900001
0.048610035 -0.084187202 0.57000005
0.049515978 -0.084187202 0.57000005
0.050510373 -0.084334902 0.57100004
0.051417902 -0.084334902 0.57100004
0.05241707 -0.084482595 0.57200003
0.053419415 -0.084630288 0.57300001
0.054330125 -0.084630288 0.57300001
0.055337235 -0.084777988 0.574
0.056445532 -0.085073382 0.57600003
0.057460587 -0.085221082 0.57700002
0.058580004 -0.085516475 0.57900006
0.059705775 -0.085811868 0.58100003
0.060837902 -0.086107254 0.583
0.061870452 -0.086254962 0.58400005
0.063013703 -0.086550348 0.58600003
0.064163312 -0.086845741 0.588
0.065319285 -0.087141141 0.59000003
0.06636931 -0.087288834 0.59100002
0.067422517 -0.087436527 0.59200001
0.068594381 -0.087731928 0.59400004
0.069655538 -0.08787962 0.59500003
0.070957184 -0.088322714 0.59800005
0.072148114 -0.088618107 0.60000002
0.073467255 -0.089061201 0.60300004
0.07467249 -0.089356586 0.60500002
0.00060147973 -0.084157906 0.57600003
0.0015116886 -0.083865687 0.574
0.0024239861 -0.083865687 0.574
0.0033304712 -0.083719581 0.57300001
0.0042411792 -0.083719581 0.57300001
0.005151887 -0.083719581 0.57300001
0.0060625956 -0.083719581 0.57300001
0.0069733034 -0.083719581 0.57300001
0.0078702522 -0.083573475 0.57200003
0.0087793712 -0.083573475 0.57200003
0.0096884901 -0.083573475 0.57200003
0.010597608 -0.083573475 0.57200003
0.011506727 -0.083573475 0.57200003
0.012415847 -0.083573475 0.57200003
0.013324965 -0.083573475 0.57200003
0.014234084 -0.083573475 0.57200003
0.015143202 -0.083573475 0.57200003
0.016080383 -0.083719581 0.57300001
0.016991092 -0.083719581 0.57300001
0.017901801 -0.083719581 0.57300001
0.018812507 -0.083719581 0.57300001
0.019723216 -0.083719581 0.57300001
0.020633925 -0.083719581 0.57300001
0.021544632 -0.083719581 0.57300001
0.02245534 -0.083719581 0.57300001
0.023366049 -0.083719581 0.57300001
0.024276758 -0.083719581 0.57300001
0.025187466 -0.083719581 0.57300001
0.026098171 -0.083719581 0.57300001
